ply
        format ascii 1.0
        element vertex 39175
        property float x
        property float y
        property float z
        property uchar red
        property uchar green
        property uchar blue
        end_header
-9.926286 -6.766173 17.172913 35 35 35
-9.851295 -6.720456 17.056879 35 35 35
-7.548285 -5.153511 13.079886 35 35 35
-6.998301 -4.781863 12.136626 35 35 35
-6.926066 -4.736321 12.021039 35 35 35
-6.855196 -4.691639 11.907633 35 35 35
-6.453907 -4.420567 11.219636 35 35 35
-6.420161 -4.401007 11.169991 34 34 34
-6.386713 -4.381619 11.120785 34 34 34
-6.381548 -4.381619 11.120785 34 34 34
-6.376383 -4.381619 11.120785 34 34 34
-6.315574 -4.343351 11.023660 34 34 34
-6.451312 -4.440301 11.269724 34 34 34
-6.941929 -4.781863 12.136626 35 35 35
-6.903104 -4.758983 12.078556 35 35 35
-6.997943 -4.828289 12.254457 35 35 35
-6.925018 -4.781863 12.136626 33 33 33
-6.952808 -4.804964 12.195257 30 30 30
-6.913744 -4.781863 12.136626 35 35 35
-6.908107 -4.781863 12.136626 37 37 37
-6.902470 -4.781863 12.136626 34 34 34
-6.896832 -4.781863 12.136626 31 31 31
-8.144140 -5.651293 14.343285 32 32 32
-8.183978 -5.683586 14.425246 33 33 33
-7.994545 -5.556578 14.102895 33 33 33
-7.447141 -5.180352 13.148011 34 34 34
-7.326557 -5.100654 12.945734 34 34 34
-7.209627 -5.023371 12.749587 34 34 34
-7.203705 -5.023371 12.749587 34 34 34
-7.125805 -4.973137 12.622091 35 35 35
-7.014722 -4.899643 12.435557 36 36 36
-6.906874 -4.828289 12.254457 37 37 37
-7.986761 -5.587795 14.182124 38 38 38
-7.980174 -5.587795 14.182124 38 38 38
-7.973587 -5.587795 14.182124 41 41 41
-8.293134 -5.816535 14.762679 40 40 40
-15.401668 -10.811169 27.439327 39 39 39
-15.388923 -10.811169 27.439327 38 38 38
-15.049026 -10.581143 26.855513 38 38 38
-70.671791 -49.731377 126.220909 37 37 37
-inf -inf inf 37 37 37
-inf -inf inf 37 37 37
-inf -inf inf 35 35 35
-140.874588 -99.462753 252.441818 28 28 28
-140.757324 -99.462753 252.441818 28 28 28
-127.854614 -90.420685 229.492554 31 31 31
-100.373444 -71.044823 180.315582 33 33 33
-9.750387 -6.907135 17.530682 35 35 35
-9.478941 -6.720456 17.056879 36 36 36
-9.471018 -6.720456 17.056879 36 36 36
-9.336922 -6.630850 16.829454 36 36 36
-8.746036 -6.216422 15.777614 36 36 36
-9.344501 -6.675352 16.942404 42 42 42
-8.860879 -6.335207 16.079096 43 43 43
-8.475522 -6.064802 15.392794 45 45 45
-8.417048 -6.028046 15.299504 51 51 51
-8.359281 -5.991732 15.207338 71 71 71
-8.014266 -5.749292 14.592012 85 85 85
-8.007488 -5.749292 14.592012 88 88 88
-8.650768 -6.216422 15.777614 90 90 90
-8.536731 -6.139676 15.582829 90 90 90
-8.529493 -6.139676 15.582829 91 91 91
-8.628784 -6.216422 15.777614 92 92 92
-9.448171 -6.812517 17.290535 93 93 93
-9.440140 -6.812517 17.290535 93 93 93
-9.432109 -6.812517 17.290535 91 91 91
-9.424078 -6.812517 17.290535 81 81 81
-9.819592 -7.104482 18.031559 74 74 74
-9.953408 -7.207446 18.292885 78 78 78
-20.793905 -15.070113 38.248760 78 78 78
-20.165077 -14.626875 37.123798 77 77 77
-20.758375 -15.070113 38.248760 77 77 77
-inf -inf inf 77 77 77
-97.693405 -71.044823 180.315582 77 77 77
-11.483489 -8.358214 21.213598 77 77 77
-11.191498 -8.152684 20.691952 77 77 77
-11.090977 -8.086403 20.523726 78 78 78
-10.817600 -7.893869 20.035065 79 79 79
-28.975428 -21.162287 53.711025 81 81 81
-inf -inf inf 86 86 86
-135.715500 -99.462753 252.441818 89 89 89
-14.124818 -10.360703 26.296022 90 90 90
-7.056302 -5.180352 13.148011 88 88 88
-6.941731 -5.100654 12.945734 83 83 83
-10.324161 -7.592577 19.270369 78 78 78
-10.640099 -7.831713 19.877308 79 79 79
-10.466046 -7.710291 19.569134 87 87 87
-10.621634 -7.831713 19.877308 92 92 92
-13.590200 -10.046742 25.499174 104 104 104
-13.178994 -9.751250 24.749197 105 105 105
-12.791285 -9.472643 24.042078 99 99 99
-11.981360 -8.880603 22.539448 76 76 76
-11.970891 -8.880603 22.539448 54 54 54
-12.177884 -9.042068 22.949257 59 59 59
-12.167225 -9.042068 22.949257 63 63 63
-12.381688 -9.209514 23.374243 63 63 63
-11.929015 -8.880603 22.539448 62 62 62
-11.709450 -8.724803 22.144018 63 63 63
-11.597432 -8.648934 21.951462 62 62 62
-11.688879 -8.724803 22.144018 62 62 62
-13.585303 -10.149261 25.759369 62 62 62
-13.713270 -10.253892 26.024929 62 62 62
-13.701182 -10.253892 26.024929 61 61 61
-13.018060 -9.751250 24.749197 58 58 58
-12.515751 -9.383278 23.815266 57 57 57
-12.387823 -9.295584 23.592693 55 55 55
-12.733891 -9.563725 24.273252 57 57 57
-12.972079 -9.751250 24.749197 57 57 57
-10.247904 -7.710291 19.569134 57 57 57
-10.238814 -7.710291 19.569134 58 58 58
-10.229725 -7.710291 19.569134 59 59 59
-16.480776 -12.432844 31.555227 59 59 59
-16.262833 -12.279352 31.165657 60 60 60
-16.248358 -12.279352 31.165657 61 61 61
-16.233883 -12.279352 31.165657 60 60 60
-16.219406 -12.279352 31.165657 59 59 59
-15.626184 -11.840803 30.052597 59 59 59
-15.612225 -11.840803 30.052597 59 59 59
-15.414758 -11.701500 29.699038 59 59 59
-15.584308 -11.840803 30.052597 59 59 59
-16.985836 -12.917240 32.784653 60 60 60
-17.193905 -13.087204 33.216030 60 60 60
-16.738005 -12.751635 32.364334 61 61 61
-18.634169 -14.208964 36.063118 61 61 61
-76.659958 -58.507500 148.495193 61 61 61
-100.157440 -76.509804 194.186020 61 61 61
-43.323391 -33.154251 84.147270 60 60 60
-16.031225 -12.279352 31.165657 60 60 60
-15.444722 -11.840803 30.052597 60 60 60
-15.616676 -11.983464 30.414677 60 60 60
-16.187645 -12.432844 31.555227 60 60 60
-16.172989 -12.432844 31.555227 59 59 59
-16.158333 -12.432844 31.555227 59 59 59
-16.143677 -12.432844 31.555227 59 59 59
-14.025234 -10.811169 27.439327 59 59 59
-12.638717 -9.751250 24.749197 59 59 59
-12.627221 -9.751250 24.749197 58 58 58
-18.382915 -14.208964 36.063118 59 59 59
-18.632341 -14.414891 36.585770 59 59 59
-18.615347 -14.414891 36.585770 58 58 58
-18.332664 -14.208964 36.063118 57 57 57
-17.325865 -13.440912 34.113758 57 57 57
-16.214449 -12.590221 31.954660 56 56 56
-5.738874 -4.460213 11.320261 56 56 56
-5.632583 -4.381619 11.120785 56 56 56
-17.262486 -13.440912 34.113758 55 55 55
-19.634636 -15.301962 38.837204 56 56 56
-19.923107 -15.541055 39.444035 55 55 55
-18.198662 -14.208964 36.063118 55 55 55
-17.925829 -14.008838 35.555187 55 55 55
-17.183262 -13.440912 34.113758 55 55 55
-11.046859 -8.648934 21.951462 55 55 55
-18.394440 -14.414891 36.585770 54 54 54
-19.813183 -15.541055 39.444035 54 54 54
-21.842607 -17.148750 43.524452 54 54 54
-23.438866 -18.419027 46.748486 53 53 53
-23.417152 -18.419027 46.748486 52 52 52
-23.395439 -18.419027 46.748486 52 52 52
-6.935061 -5.464986 13.870429 52 52 52
-6.743362 -5.318863 13.499562 53 53 53
-6.846936 -5.405584 13.719664 53 53 53
-8.391090 -6.630850 16.829454 52 52 52
-10.537593 -8.358214 21.213598 51 51 51
-7.929121 -6.295111 15.977330 51 51 51
-7.921700 -6.295111 15.977330 51 51 51
-19.538376 -15.541055 39.444035 51 51 51
-40.299469 -32.084759 81.432846 50 50 50
-19.501734 -15.541055 39.444035 50 50 50
-8.425260 -6.720456 17.056879 50 50 50
-7.835006 -6.255519 15.876843 50 50 50
-7.542990 -6.028046 15.299504 50 50 50
-26.455765 -21.162287 53.711025 50 50 50
-24.844967 -19.892550 50.488365 50 50 50
-24.334822 -19.502501 49.498394 50 50 50
-24.798067 -19.892550 50.488365 50 50 50
-25.806892 -20.721407 52.592045 49 49 49
-26.331028 -21.162287 53.711025 51 51 51
-25.758038 -20.721407 52.592045 55 55 55
-26.281134 -21.162287 53.711025 56 56 56
-25.709183 -20.721407 52.592045 46 46 46
-23.261665 -18.766556 47.630531 32 32 32
-22.809179 -18.419027 46.748486 26 26 26
-22.373150 -18.084137 45.898514 19 19 19
-22.351831 -18.084137 45.898514 16 16 16
-22.330513 -18.084137 45.898514 17 17 17
-21.910816 -17.761206 45.078896 17 17 17
-20.430552 -16.577126 42.073635 18 18 18
-17.495152 -14.208964 36.063118 19 19 19
-16.533623 -13.440912 34.113758 20 20 20
-16.297541 -13.261700 33.658909 21 21 21
-16.501934 -13.440912 34.113758 23 23 23
-18.208515 -14.845186 37.677883 24 24 24
-18.466637 -15.070113 38.248760 26 26 26
-17.906258 -14.626875 37.123798 28 28 28
-16.438555 -13.440912 34.113758 31 31 31
-16.203739 -13.261700 33.658909 32 32 32
-16.406864 -13.440912 34.113758 35 35 35
-16.391020 -13.440912 34.113758 39 39 39
-16.375175 -13.440912 34.113758 40 40 40
-16.359329 -13.440912 34.113758 40 40 40
-15.913393 -13.087204 33.216030 41 41 41
-15.691499 -12.917240 32.784653 42 42 42
-15.475293 -12.751635 32.364334 43 43 43
-11.165744 -9.209514 23.374243 44 44 44
-9.715547 -8.021190 20.358212 46 46 46
-9.476813 -7.831713 19.877308 47 47 47
-16.934969 -14.008838 35.555187 47 47 47
-18.480158 -15.301962 38.837204 47 47 47
-20.000629 -16.577126 42.073635 46 46 46
-54.493874 -45.210342 114.746277 46 46 46
-inf -inf inf 45 45 45
-7.414971 -4.992236 12.685518 35 35 35
-7.372034 -4.967275 12.622091 35 35 35
-7.440577 -5.017449 12.749587 33 33 33
-7.472394 -5.042919 12.814305 32 32 32
-7.504537 -5.068648 12.879684 35 35 35
-7.615112 -5.147435 13.079886 36 36 36
-6.535063 -4.435067 11.269724 35 35 35
-18.514957 -12.575379 31.954660 35 35 35
-18.268864 -12.418187 31.555227 34 34 34
-18.254208 -12.418187 31.555227 35 35 35
-10.133083 -6.898993 17.530682 35 35 35
-10.124941 -6.898993 17.530682 35 35 35
-10.047028 -6.851414 17.409781 34 34 34
-10.108656 -6.898993 17.530682 35 35 35
-6.448695 -4.415356 11.219636 34 34 34
-6.386713 -4.376454 11.120785 34 34 34
-6.381548 -4.376454 11.120785 34 34 34
-6.238961 -4.282134 10.881113 34 34 34
-6.026110 -4.139396 10.518409 34 34 34
-6.947567 -4.776226 12.136626 34 34 34
-6.941929 -4.776226 12.136626 35 35 35
-6.903104 -4.753373 12.078556 35 35 35
-6.930655 -4.776226 12.136626 35 35 35
-6.925018 -4.776226 12.136626 33 33 33
-6.986559 -4.822597 12.254457 31 31 31
-6.947144 -4.799299 12.195257 35 35 35
-6.941479 -4.799299 12.195257 37 37 37
-6.902470 -4.776226 12.136626 34 34 34
-6.930151 -4.799299 12.195257 31 31 31
-8.144140 -5.644630 14.343285 32 32 32
-8.137478 -5.644630 14.343285 33 33 33
-7.950131 -5.519194 14.024546 33 33 33
-7.605591 -5.284335 13.427756 34 34 34
-7.441034 -5.174245 13.148011 34 34 34
-7.396405 -5.147435 13.079886 34 34 34
-7.390329 -5.147435 13.079886 35 35 35
-7.271230 -5.068648 12.879684 36 36 36
-7.455437 -5.201335 13.216849 38 38 38
-7.993349 -5.581208 14.182124 39 39 39
-8.077519 -5.644630 14.343285 38 38 38
-8.070858 -5.644630 14.343285 43 43 43
-8.299991 -5.809678 14.762679 50 50 50
-15.756955 -11.038388 28.049091 48 48 48
-15.743927 -11.038388 28.049091 43 43 43
-15.061499 -10.568670 26.855513 39 39 39
-13.868710 -9.739755 24.749197 38 38 38
-13.334301 -9.372217 23.815266 37 37 37
-inf -inf inf 37 37 37
-inf -inf inf 37 37 37
-inf -inf inf 35 35 35
-inf -inf inf 28 28 28
-inf -inf inf 27 27 27
-140.640076 -99.345497 252.441818 31 31 31
-100.373444 -70.961067 180.315582 33 33 33
-9.750387 -6.898993 17.530682 35 35 35
-9.675056 -6.851414 17.409781 36 36 36
-9.666970 -6.851414 17.409781 36 36 36
-7.091475 -5.042919 12.814305 36 36 36
-10.628478 -7.583626 19.270369 41 41 41
-9.336631 -6.667483 16.942404 43 43 43
-8.742047 -6.248145 15.876843 45 45 45
-8.520326 -6.094816 15.487228 50 50 50
-8.513132 -6.094816 15.487228 71 71 71
-13.460855 -9.645194 24.508915 85 85 85
-14.737185 -10.568670 26.855513 87 87 87
-13.569833 -9.739755 24.749197 89 89 89
-13.558337 -9.739755 24.749197 90 90 90
-11.326049 -8.143074 20.691952 90 90 90
-10.785979 -7.761367 19.722017 91 91 91
-10.776819 -7.761367 19.722017 92 92 92
-10.767659 -7.761367 19.722017 91 91 91
-10.512121 -7.583626 19.270369 89 89 89
-9.898671 -7.147158 18.161282 80 80 80
-9.961905 -7.198949 18.292885 74 74 74
-10.026060 -7.251496 18.426411 78 78 78
-22.135448 -16.023468 40.716423 79 79 79
-20.776140 -15.052348 38.248760 78 78 78
-inf -inf inf 78 78 78
-inf -inf inf 78 78 78
-113.975639 -82.787918 210.368179 77 77 77
-71.922905 -52.287106 132.864120 77 77 77
-71.861191 -52.287106 132.864120 77 77 77
-71.799484 -52.287106 132.864120 78 78 78
-75.723206 -55.191944 140.245453 79 79 79
-59.210659 -43.193695 109.757309 80 80 80
-inf -inf inf 84 84 84
-15.767239 -11.551802 29.353699 84 84 84
-14.112604 -10.348490 26.296022 81 81 81
-11.874013 -8.714518 22.144018 79 79 79
-11.559530 -8.491068 21.576223 79 79 79
-10.810340 -7.947640 20.195345 74 74 74
-10.800960 -7.947640 20.195345 79 79 79
-10.621634 -7.822480 19.877308 84 84 84
-20.420832 -15.052348 38.248760 88 88 88
-13.190489 -9.739755 24.749197 93 93 93
-12.925551 -9.552452 24.273252 95 95 95
-12.552195 -9.284626 23.592693 92 92 92
-11.981360 -8.870133 22.539448 72 72 72
-11.970891 -8.870133 22.539448 53 53 53
-11.960423 -8.870133 22.539448 60 60 60
-12.167225 -9.031409 22.949257 63 63 63
-12.497404 -9.284626 23.592693 63 63 63
-12.370831 -9.198657 23.374243 63 63 63
-11.918547 -8.870133 22.539448 62 62 62
-11.597432 -8.638739 21.951462 62 62 62
-11.487347 -8.564267 21.762226 61 61 61
-11.781944 -8.791637 22.339983 62 62 62
-13.301871 -9.934549 25.244183 62 62 62
-13.158561 -9.836188 24.994240 61 61 61
-12.526813 -9.372217 23.815266 59 59 59
-12.398782 -9.284626 23.592693 57 57 57
-12.387823 -9.284626 23.592693 56 56 56
-13.652831 -10.241804 26.024929 57 57 57
-13.365172 -10.034899 25.499174 57 57 57
-10.747801 -8.076870 20.523726 58 58 58
-10.238814 -7.701201 19.569134 58 58 58
-10.728736 -8.076870 20.523726 59 59 59
-16.689392 -12.575379 31.954660 58 58 58
-16.262833 -12.264876 31.165657 59 59 59
-16.050207 -12.115305 30.785587 60 60 60
-15.842704 -11.969337 30.414677 60 60 60
-15.828577 -11.969337 30.414677 60 60 60
-15.626184 -11.826845 30.052597 59 59 59
-15.428552 -11.687706 29.699038 57 57 57
-15.414758 -11.687706 29.699038 58 58 58
-15.584308 -11.826845 30.052597 59 59 59
-16.348867 -12.418187 31.555227 59 59 59
-16.753036 -12.736603 32.364334 60 60 60
-16.738005 -12.736603 32.364334 61 61 61
-42.077156 -32.046936 81.432846 61 61 61
-76.659958 -58.438530 148.495193 61 61 61
-100.157440 -76.419617 194.186020 61 61 61
-19.113260 -14.609632 37.123798 60 60 60
-16.031225 -12.264876 31.165657 60 60 60
-15.821423 -12.115305 30.785587 60 60 60
-16.407394 -12.575379 31.954660 60 60 60
-16.818333 -12.902013 32.784653 59 59 59
-16.587681 -12.736603 32.364334 59 59 59
-16.158333 -12.418187 31.555227 59 59 59
-16.143677 -12.418187 31.555227 59 59 59
-15.546043 -11.969337 30.414677 59 59 59
-26.857273 -20.696980 52.592045 58 58 58
-19.815023 -15.283923 38.837204 58 58 58
-18.649334 -14.397899 36.585770 58 58 58
-18.366165 -14.192214 36.063118 58 58 58
-18.349415 -14.192214 36.063118 57 57 57
-13.948766 -10.798424 27.439327 57 57 57
-15.447156 -11.969337 30.414677 56 56 56
-13.923277 -10.798424 27.439327 56 56 56
-10.754361 -8.348361 21.213598 55 55 55
-5.511191 -4.282134 10.881113 54 54 54
-19.959749 -15.522734 39.444035 55 55 55
-19.941427 -15.522734 39.444035 56 56 56
-19.923107 -15.522734 39.444035 56 56 56
-17.942343 -13.992324 35.555187 55 55 55
-11.164331 -8.714518 22.144018 54 54 54
-11.154047 -8.714518 22.144018 55 55 55
-10.328364 -8.076870 20.523726 54 54 54
-10.318831 -8.076870 20.523726 54 54 54
-18.114910 -14.192214 36.063118 54 54 54
-19.794863 -15.522734 39.444035 52 52 52
-21.822392 -17.128534 43.524452 50 50 50
-23.417152 -18.397314 46.748486 51 51 51
-23.395439 -18.397314 46.748486 52 52 52
-7.090906 -5.581208 14.182124 53 53 53
-6.928619 -5.458544 13.870429 53 53 53
-7.038191 -5.550028 14.102895 53 53 53
-8.391090 -6.623033 16.829454 52 52 52
-20.282114 -16.023468 40.716423 52 52 52
-7.936542 -6.287690 15.977330 51 51 51
-7.685896 -6.094816 15.487228 51 51 51
-7.822678 -6.209094 15.777614 51 51 51
-7.914279 -6.287690 15.977330 51 51 51
-8.218970 -6.535888 16.608015 50 50 50
-8.433182 -6.712533 17.056879 50 50 50
-8.425260 -6.712533 17.056879 50 50 50
-8.417337 -6.712533 17.056879 50 50 50
-7.542990 -6.020939 15.299504 50 50 50
-8.818588 -7.045780 17.903675 49 49 49
-8.337237 -6.667483 16.942404 50 50 50
-8.385648 -6.712533 17.056879 50 50 50
-8.492489 -6.804486 17.290535 50 50 50
-25.280222 -20.274591 51.518738 49 49 49
-25.782465 -20.696980 52.592045 50 50 50
-25.758038 -20.696980 52.592045 55 55 55
-25.733610 -20.696980 52.592045 56 56 56
-25.184505 -20.274591 51.518738 46 46 46
-22.830893 -18.397314 46.748486 32 32 32
-22.394468 -18.062819 45.898514 26 26 26
-22.373150 -18.062819 45.898514 19 19 19
-22.351831 -18.062819 45.898514 16 16 16
-22.330513 -18.062819 45.898514 17 17 17
-22.309195 -18.062819 45.898514 17 17 17
-20.430552 -16.557583 42.073635 18 18 18
-17.495152 -14.192214 36.063118 19 19 19
-17.232227 -13.992324 35.555187 20 20 20
-16.297541 -13.246066 33.658909 21 21 21
-16.281908 -13.246066 33.658909 23 23 23
-17.428150 -14.192214 36.063118 24 24 24
-17.923500 -14.609632 37.123798 26 26 26
-16.911465 -13.797986 35.061363 29 29 29
-16.005960 -13.071776 33.216030 31 31 31
-15.782864 -12.902013 32.784653 32 32 32
-15.975105 -13.071776 33.216030 34 34 34
-15.959677 -13.071776 33.216030 38 38 38
-15.944249 -13.071776 33.216030 39 39 39
-15.928822 -13.071776 33.216030 40 40 40
-15.706726 -12.902013 32.784653 40 40 40
-13.277422 -10.917088 27.740858 41 41 41
-12.979279 -10.682312 27.144281 42 42 42
-11.165744 -9.198657 23.374243 44 44 44
-9.715547 -8.011734 20.358212 45 45 45
-9.402776 -7.761367 19.722017 46 46 46
-9.696635 -8.011734 20.358212 47 47 47
-21.840187 -18.062819 45.898514 47 47 47
-66.668762 -55.191944 140.245453 46 46 46
-70.521484 -58.438530 148.495193 45 45 45
-inf -inf inf 45 45 45
-7.377896 -4.961412 12.622091 35 35 35
-7.192228 -4.840402 12.314235 35 35 35
-7.366171 -4.961412 12.622091 33 33 33
-7.397295 -4.986344 12.685518 31 31 31
-7.428733 -5.011528 12.749587 34 34 34
-7.537009 -5.088628 12.945734 35 35 35
-21.181292 -14.380905 36.585770 34 34 34
-18.254208 -12.403531 31.555227 34 34 34
-10.133083 -6.890851 17.530682 35 35 35
-10.124941 -6.890851 17.530682 35 35 35
-10.116798 -6.890851 17.530682 34 34 34
-7.291238 -4.986344 12.685518 33 33 33
-6.806497 -4.658603 11.851728 34 34 34
-6.381548 -4.371288 11.120785 34 34 34
-6.376383 -4.371288 11.120785 34 34 34
-7.416750 -5.088628 12.945734 34 34 34
-7.410738 -5.088628 12.945734 35 35 35
-6.941929 -4.770589 12.136626 35 35 35
-6.870233 -4.725154 12.021039 35 35 35
-6.864649 -4.725154 12.021039 35 35 35
-7.026360 -4.840402 12.314235 32 32 32
-38.898144 -26.818445 68.227516 30 30 30
-7.084033 -4.888091 12.435557 36 36 36
-6.941479 -4.793635 12.195257 37 37 37
-6.935815 -4.793635 12.195257 34 34 34
-6.930151 -4.793635 12.195257 31 31 31
-8.144140 -5.637969 14.343285 32 32 32
-8.130816 -5.637969 14.343285 34 34 34
-7.899730 -5.482224 13.947062 34 34 34
-7.599354 -5.278098 13.427756 34 34 34
-7.633722 -5.306324 13.499562 35 35 35
-7.627452 -5.306324 13.499562 36 36 36
-7.580644 -5.278098 13.427756 38 38 38
-7.655852 -5.334852 13.572141 39 39 39
-7.860862 -5.482224 13.947062 35 35 35
-8.077519 -5.637969 14.343285 37 37 37
-8.116977 -5.670186 14.425246 54 54 54
-8.815518 -6.163245 15.679616 60 60 60
-16.882452 -11.812886 30.052597 55 55 55
-16.476202 -11.538168 29.353699 50 50 50
-14.902957 -10.445079 26.572823 46 46 46
-13.345363 -9.361156 23.815266 41 41 41
-12.733657 -8.939482 22.742506 37 37 37
-12.723093 -8.939482 22.742506 36 36 36
-inf -inf inf 36 36 36
-inf -inf inf 34 34 34
-inf -inf inf 27 27 27
-inf -inf inf 27 27 27
-127.854614 -90.207497 229.492554 30 30 30
-11.808640 -8.338508 21.213598 33 33 33
-10.101120 -7.138723 18.161282 35 35 35
-9.742245 -6.890851 17.530682 35 35 35
-9.734102 -6.890851 17.530682 35 35 35
-42.440552 -30.069166 76.497520 35 35 35
-31.803766 -22.551874 57.373138 36 36 36
-7.097427 -5.036967 12.814305 36 36 36
-7.055660 -5.011528 12.749587 36 36 36
-12.575209 -8.939482 22.742506 36 36 36
-12.913663 -9.187800 23.374243 35 35 35
-10.628478 -7.574675 19.270369 40 40 40
-10.381777 -7.405093 18.838942 42 42 42
-9.652678 -6.890851 17.530682 44 44 44
-9.320892 -6.659614 16.942404 50 50 50
-21.681883 -15.504414 39.444035 71 71 71
-21.663563 -15.504414 39.444035 84 84 84
-20.076746 -14.380905 36.585770 86 86 86
-20.059753 -14.380905 36.585770 88 88 88
-18.196716 -13.056348 33.216030 88 88 88
-13.957353 -10.023055 25.499174 89 89 89
-12.666104 -9.103509 23.159800 90 90 90
-12.207371 -8.781260 22.339983 90 90 90
-11.582020 -8.338508 21.213598 90 90 90
-10.929269 -7.875257 20.035065 89 89 89
-10.749338 -7.752207 19.722017 81 81 81
-10.740178 -7.752207 19.722017 73 73 73
-inf -inf inf 73 73 73
-inf -inf inf 74 74 74
-inf -inf inf 75 75 75
-inf -inf inf 75 75 75
-97.777161 -70.877319 180.315582 75 75 75
-80.453392 -58.369556 148.495193 76 76 76
-71.922905 -52.225391 132.864120 76 76 76
-75.853485 -55.126804 140.245453 76 76 76
-85.261887 -62.017654 157.776138 77 77 77
-inf -inf inf 78 78 78
-85.115318 -62.017654 157.776138 80 80 80
-16.337139 -11.955211 30.414677 81 81 81
-15.395569 -11.275937 28.686569 80 80 80
-12.650818 -9.273668 23.592693 79 79 79
-11.659181 -8.554159 21.762226 80 80 80
-10.986117 -8.067337 20.523726 73 73 73
-10.800960 -7.938260 20.195345 75 75 75
-10.791579 -7.938260 20.195345 79 79 79
-20.420832 -15.034583 38.248760 80 80 80
-13.454299 -9.922825 25.244183 82 82 82
-12.802451 -9.450309 24.042078 84 84 84
-12.552195 -9.273668 23.592693 83 83 83
-11.981360 -8.859665 22.539448 68 68 68
-11.970891 -8.859665 22.539448 53 53 53
-11.960423 -8.859665 22.539448 60 60 60
-12.392545 -9.187800 23.374243 63 63 63
-12.497404 -9.273668 23.592693 62 62 62
-12.604243 -9.361156 23.815266 62 62 62
-12.593182 -9.361156 23.815266 61 61 61
-11.908078 -8.859665 22.539448 61 61 61
-11.688879 -8.704232 22.144018 61 61 61
-13.313597 -9.922825 25.244183 61 61 61
-13.170170 -9.824579 24.994240 61 61 61
-12.537874 -9.361156 23.815266 60 60 60
-12.294834 -9.187800 23.374243 58 58 58
-12.283978 -9.187800 23.374243 56 56 56
-12.387823 -9.273668 23.592693 56 56 56
-13.795048 -10.336276 26.296022 57 57 57
-13.640743 -10.229716 26.024929 57 57 57
-12.354949 -9.273668 23.592693 58 58 58
-12.343991 -9.273668 23.592693 58 58 58
-17.138111 -12.886786 32.784653 58 58 58
-17.122883 -12.886786 32.784653 59 59 59
-16.064507 -12.101006 30.785587 59 59 59
-15.856831 -11.955211 30.414677 59 59 59
-15.469934 -11.673911 29.699038 61 61 61
-15.456141 -11.673911 29.699038 61 61 61
-15.442346 -11.673911 29.699038 59 59 59
-15.612225 -11.812886 30.052597 58 58 58
-15.414758 -11.673911 29.699038 59 59 59
-16.161505 -12.250401 31.165657 60 60 60
-16.147028 -12.250401 31.165657 59 59 59
-16.132553 -12.250401 31.165657 60 60 60
-30.361961 -23.076336 58.707397 60 60 60
-42.077156 -32.009113 81.432846 61 61 61
-18.305658 -13.975809 35.555187 60 60 60
-16.864016 -12.886786 32.784653 60 60 60
-16.848787 -12.886786 32.784653 61 61 61
-17.282455 -13.230433 33.658909 60 60 60
-17.500158 -13.409223 34.113758 59 59 59
-17.251188 -13.230433 33.658909 59 59 59
-16.787878 -12.886786 32.784653 59 59 59
-47.833115 -36.751202 93.496971 58 58 58
-47.789688 -36.751202 93.496971 58 58 58
-47.746262 -36.751202 93.496971 58 58 58
-26.832846 -20.672552 52.592045 58 58 58
-11.468384 -8.859665 22.539448 57 57 57
-11.457915 -8.859665 22.539448 57 57 57
-11.447446 -8.859665 22.539448 57 57 57
-11.236328 -8.704232 22.144018 56 56 56
-10.845499 -8.409173 21.393373 56 56 56
-10.835563 -8.409173 21.393373 55 55 55
-19.652676 -15.265884 38.837204 56 56 56
-19.634636 -15.265884 38.837204 56 56 56
-19.031027 -14.810186 37.677883 56 56 56
-8.908436 -6.939038 17.653275 55 55 55
-8.838429 -6.890851 17.530682 54 54 54
-11.057055 -8.628543 21.951462 54 54 54
-10.003061 -7.813248 19.877308 54 54 54
-17.876286 -13.975809 35.555187 54 54 54
-18.114910 -14.175464 36.063118 54 54 54
-19.195019 -15.034583 38.248760 52 52 52
-20.749159 -16.266926 41.383904 51 51 51
-23.417152 -18.375601 46.748486 52 52 52
-23.395439 -18.375601 46.748486 53 53 53
-21.761744 -17.108318 43.524452 53 53 53
-7.124343 -5.606116 14.262250 53 53 53
-20.319939 -16.004557 40.716423 52 52 52
-20.301025 -16.004557 40.716423 51 51 51
-20.282114 -16.004557 40.716423 51 51 51
-18.751024 -14.810186 37.677883 51 51 51
-7.700283 -6.087623 15.487228 51 51 51
-7.693089 -6.087623 15.487228 51 51 51
-7.639031 -6.050503 15.392794 51 51 51
-7.822678 -6.201766 15.777614 51 51 51
-7.914279 -6.280269 15.977330 51 51 51
-7.906857 -6.280269 15.977330 50 50 50
-7.899436 -6.280269 15.977330 49 49 49
-9.741707 -7.752207 19.722017 50 50 50
-7.542990 -6.013833 15.299504 50 50 50
-6.831983 -5.452101 13.870429 49 49 49
-6.825541 -5.452101 13.870429 50 50 50
-7.660962 -6.125200 15.582829 50 50 50
-8.377726 -6.704611 17.056879 49 49 49
-24.288839 -19.456518 49.498394 49 49 49
-25.256292 -20.250662 51.518738 51 51 51
-25.232363 -20.250662 51.518738 56 56 56
-25.733610 -20.672552 52.592045 56 56 56
-25.184505 -20.250662 51.518738 45 45 45
-22.415787 -18.041500 45.898514 32 32 32
-22.394468 -18.041500 45.898514 26 26 26
-22.373150 -18.041500 45.898514 18 18 18
-22.765753 -18.375601 46.748486 16 16 16
-23.173174 -18.722311 47.630531 17 17 17
-23.151051 -18.722311 47.630531 17 17 17
-20.095625 -16.266926 41.383904 18 18 18
-17.248741 -13.975809 35.555187 19 19 19
-16.533623 -13.409223 34.113758 20 20 20
-15.874228 -12.886786 32.784653 21 21 21
-15.859001 -12.886786 32.784653 23 23 23
-16.266273 -13.230433 33.658909 25 25 25
-16.695864 -13.592911 34.581070 26 26 26
-16.021389 -13.056348 33.216030 29 29 29
-15.398139 -12.560537 31.954660 31 31 31
-15.383297 -12.560537 31.954660 32 32 32
-15.565487 -12.721570 32.364334 33 33 33
-15.550454 -12.721570 32.364334 37 37 37
-15.338772 -12.560537 31.954660 39 39 39
-15.721953 -12.886786 32.784653 39 39 39
-15.309088 -12.560537 31.954660 40 40 40
-14.734700 -12.101006 30.785587 41 41 41
-12.979279 -10.669703 27.144281 42 42 42
-9.402776 -7.752207 19.722017 46 46 46
-9.467581 -7.813248 19.877308 47 47 47
-66.733902 -55.126804 140.245453 47 47 47
-85.716980 -70.877319 180.315582 46 46 46
-85.633232 -70.877319 180.315582 45 45 45
-inf -inf inf 45 45 45
-7.197948 -4.834682 12.314235 35 35 35
-6.954749 -4.675047 11.907633 34 34 34
-7.257312 -4.882315 12.435557 33 33 33
-7.323690 -4.930895 12.559295 31 31 31
-7.317857 -4.930895 12.559295 33 33 33
-7.422812 -5.005606 12.749587 35 35 35
-9.065087 -6.117963 15.582829 35 35 35
-91.417603 -61.944370 157.776138 34 34 34
-21.181292 -14.363913 36.585770 34 34 34
-10.737769 -7.287573 18.561899 34 34 34
-10.133083 -6.882708 17.530682 34 34 34
-10.124941 -6.882708 17.530682 34 34 34
-10.116798 -6.882708 17.530682 34 34 34
-10.323734 -7.029149 17.903675 34 34 34
-9.946089 -6.788424 17.290535 33 33 33
-8.016334 -5.475746 13.947062 33 33 33
-8.224085 -5.631307 14.343285 34 34 34
-7.990422 -5.475746 13.947062 35 35 35
-7.983944 -5.475746 13.947062 35 35 35
-7.404725 -5.082615 12.945734 35 35 35
-6.837672 -4.697204 11.964067 35 35 35
-6.832115 -4.697204 11.964067 35 35 35
-38.929832 -26.786755 68.227516 33 33 33
-42.330330 -29.150293 74.247597 31 31 31
-36.873302 -25.413076 64.728668 36 36 36
-7.043560 -4.858382 12.374599 38 38 38
-6.935815 -4.787971 12.195257 34 34 34
-6.930151 -4.787971 12.195257 31 31 31
-12.045115 -8.328655 21.213598 33 33 33
-12.453879 -8.618347 21.951462 34 34 34
-12.336411 -8.544051 21.762226 34 34 34
-12.015555 -8.328655 21.213598 35 35 35
-8.210796 -5.696034 14.508150 35 35 35
-7.974895 -5.536927 14.102895 35 35 35
-7.968344 -5.536927 14.102895 38 38 38
-7.873818 -5.475746 13.947062 38 38 38
-7.867340 -5.475746 13.947062 33 33 33
-7.860862 -5.475746 13.947062 32 32 32
-8.077519 -5.631307 14.343285 46 46 46
-8.608915 -6.006727 15.299504 62 62 62
-17.308517 -12.086707 30.785587 62 62 62
-17.294218 -12.086707 30.785587 60 60 60
-16.868494 -11.798928 30.052597 58 58 58
-14.747718 -10.324062 26.296022 55 55 55
-13.345363 -9.350094 23.815266 49 49 49
-12.398561 -8.693947 22.144018 41 41 41
-12.280551 -8.618347 21.951462 33 33 33
-inf -inf inf 31 31 31
-inf -inf inf 31 31 31
-inf -inf inf 25 25 25
-inf -inf inf 26 26 26
-87.900047 -61.944370 157.776138 30 30 30
-11.152605 -7.865952 20.035065 33 33 33
-10.400413 -7.341555 18.699394 34 34 34
-10.092685 -7.130287 18.161282 35 35 35
-31.857061 -22.525227 57.373138 35 35 35
-37.852383 -26.786755 68.227516 35 35 35
-31.803766 -22.525227 57.373138 35 35 35
-17.051136 -12.086707 30.785587 36 36 36
-12.585772 -8.928919 22.742506 36 36 36
-12.575209 -8.928919 22.742506 35 35 35
-12.564645 -8.928919 22.742506 33 33 33
-7.373032 -5.243968 13.356709 36 36 36
-7.366828 -5.243968 13.356709 40 40 40
-10.381777 -7.396343 18.838942 41 41 41
-46.332851 -33.036999 84.147270 43 43 43
-38.578140 -27.530832 70.122726 49 49 49
-33.039059 -23.597857 60.105194 69 69 69
-28.884750 -20.648125 52.592045 82 82 82
-28.860323 -20.648125 52.592045 85 85 85
-60.179260 -43.091736 109.757309 85 85 85
-inf -inf inf 85 85 85
-inf -inf inf 86 86 86
-inf -inf inf 87 87 87
-inf -inf inf 88 88 88
-inf -inf inf 87 87 87
-11.974677 -8.618347 21.951462 87 87 87
-11.562314 -8.328655 21.213598 83 83 83
-inf -inf inf 72 72 72
-inf -inf inf 64 64 64
-inf -inf inf 64 64 64
-inf -inf inf 64 64 64
-85.628296 -61.944370 157.776138 64 64 64
-27.377605 -19.822199 50.488365 64 64 64
-27.354155 -19.822199 50.488365 64 64 64
-48.804829 -35.396782 90.157791 65 65 65
-50.568989 -36.707775 93.496971 66 66 66
-85.261887 -61.944370 157.776138 67 67 67
-inf -inf inf 69 69 69
-inf -inf inf 71 71 71
-16.323011 -11.941084 30.414677 80 80 80
-12.650818 -9.262710 23.592693 79 79 79
-11.559530 -8.471025 21.576223 79 79 79
-10.986117 -8.057804 20.523726 74 74 74
-11.539487 -8.471025 21.576223 73 73 73
-16.450579 -12.086707 30.785587 77 77 77
-19.532970 -14.363913 36.585770 78 78 78
-9.687787 -7.130287 18.161282 77 77 77
-13.454299 -9.911099 25.244183 77 77 77
-13.178994 -9.716764 24.749197 77 77 77
-12.670611 -9.350094 23.815266 76 76 76
-12.089300 -8.928919 22.742506 64 64 64
-11.970891 -8.849195 22.539448 52 52 52
-11.960423 -8.849195 22.539448 60 60 60
-12.278852 -9.092752 23.159800 62 62 62
-12.497404 -9.262710 23.592693 62 62 62
-13.098527 -9.716764 24.749197 61 61 61
-13.348772 -9.911099 25.244183 61 61 61
-13.337048 -9.911099 25.244183 60 60 60
-13.325322 -9.911099 25.244183 60 60 60
-13.313597 -9.911099 25.244183 60 60 60
-13.170170 -9.812970 24.994240 60 60 60
-12.903055 -9.622427 24.508915 58 58 58
-12.409739 -9.262710 23.592693 56 56 56
-12.880287 -9.622427 24.508915 56 56 56
-13.807261 -10.324062 26.296022 57 57 57
-13.795048 -10.324062 26.296022 58 58 58
-13.640743 -10.217628 26.024929 58 58 58
-12.834753 -9.622427 24.508915 58 58 58
-12.823369 -9.622427 24.508915 58 58 58
-16.495432 -12.388874 31.555227 58 58 58
-16.480776 -12.388874 31.555227 59 59 59
-16.064507 -12.086707 30.785587 60 60 60
-15.483729 -11.660117 29.699038 60 60 60
-15.290051 -11.524534 29.353699 61 61 61
-15.640142 -11.798928 30.052597 60 60 60
-15.814450 -11.941084 30.414677 59 59 59
-15.993011 -12.086707 30.785587 59 59 59
-16.378180 -12.388874 31.555227 60 60 60
-16.363523 -12.388874 31.555227 61 61 61
-16.147028 -12.235926 31.165657 60 60 60
-16.132553 -12.235926 31.165657 59 59 59
-30.361961 -23.049068 58.707397 59 59 59
-42.077156 -31.971289 81.432846 60 60 60
-17.101339 -13.040920 33.216030 60 60 60
-17.085911 -13.040920 33.216030 60 60 60
-17.298090 -13.214799 33.658909 61 61 61
-17.516003 -13.393377 34.113758 60 60 60
-17.266823 -13.214799 33.658909 59 59 59
-17.251188 -13.214799 33.658909 59 59 59
-17.468468 -13.393377 34.113758 59 59 59
-26.857273 -20.648125 52.592045 58 58 58
-24.768780 -19.059807 48.546505 58 58 58
-21.095148 -16.247704 41.383904 58 58 58
-19.171030 -14.792686 37.677883 57 57 57
-11.457915 -8.849195 22.539448 57 57 57
-11.246614 -8.693947 22.144018 57 57 57
-11.236328 -8.693947 22.144018 57 57 57
-10.754361 -8.328655 21.213598 56 56 56
-11.215758 -8.693947 22.144018 56 56 56
-19.652676 -15.247846 38.837204 56 56 56
-19.941427 -15.486093 39.444035 55 55 55
-19.319376 -15.016817 38.248760 55 55 55
-8.785561 -6.835241 17.409781 54 54 54
-8.777474 -6.835241 17.409781 54 54 54
-8.830287 -6.882708 17.530682 54 54 54
-9.410287 -7.341555 18.699394 54 54 54
-17.876286 -13.959295 35.555187 53 53 53
-18.114910 -14.158713 36.063118 53 53 53
-20.109068 -15.731904 40.070129 53 53 53
-21.822392 -17.088102 43.524452 52 52 52
-23.417152 -18.353888 46.748486 52 52 52
-23.395439 -18.353888 46.748486 52 52 52
-7.090906 -5.568033 14.182124 53 53 53
-7.124343 -5.599491 14.262250 53 53 53
-20.653051 -16.247704 41.383904 52 52 52
-20.301025 -15.985644 40.716423 51 51 51
-18.768524 -14.792686 37.677883 51 51 51
-7.660479 -6.043354 15.392794 51 51 51
-7.340035 -5.795965 14.762679 51 51 51
-7.165563 -5.663486 14.425246 51 51 51
-7.326322 -5.795965 14.762679 51 51 51
-8.234398 -6.520460 16.608015 50 50 50
-8.449027 -6.696689 17.056879 50 50 50
-8.218970 -6.520460 16.608015 50 50 50
-7.899436 -6.272848 15.977330 50 50 50
-7.892015 -6.272848 15.977330 49 49 49
-7.031601 -5.599491 14.262250 50 50 50
-6.946486 -5.536927 14.102895 49 49 49
-6.825541 -5.445659 13.870429 49 49 49
-6.894866 -5.506166 14.024546 49 49 49
-7.798134 -6.233396 15.876843 49 49 49
-23.821747 -19.059807 48.546505 48 48 48
-24.265850 -19.433529 49.498394 51 51 51
-24.242859 -19.433529 49.498394 56 56 56
-25.208435 -20.226734 51.518738 55 55 55
-25.184505 -20.226734 51.518738 45 45 45
-22.415787 -18.020182 45.898514 32 32 32
-22.394468 -18.020182 45.898514 26 26 26
-22.787466 -18.353888 46.748486 18 18 18
-23.195295 -18.700188 47.630531 16 16 16
-23.173174 -18.700188 47.630531 17 17 17
-23.151051 -18.700188 47.630531 17 17 17
-18.858971 -15.247846 38.837204 18 18 18
-17.248741 -13.959295 35.555187 19 19 19
-16.313175 -13.214799 33.658909 20 20 20
-15.670712 -12.706538 32.364334 22 22 22
-15.264289 -12.388874 31.555227 24 24 24
-15.843774 -12.871558 32.784653 25 25 25
-16.036816 -13.040920 33.216030 26 26 26
-15.412981 -12.545695 31.954660 28 28 28
-15.398139 -12.545695 31.954660 31 31 31
-15.191006 -12.388874 31.555227 33 33 33
-15.176350 -12.388874 31.555227 33 33 33
-15.161694 -12.388874 31.555227 36 36 36
-15.147037 -12.388874 31.555227 39 39 39
-15.323930 -12.545695 31.954660 40 40 40
-15.117723 -12.388874 31.555227 40 40 40
-14.734700 -12.086707 30.785587 41 41 41
-14.720401 -12.086707 30.785587 42 42 42
-120.238281 -99.110992 252.441818 47 47 47
-75.075645 -61.944370 157.776138 47 47 47
-120.003777 -99.110992 252.441818 46 46 46
-inf -inf inf 46 46 46
-inf -inf inf 45 45 45
-6.960279 -4.669516 11.907633 34 34 34
-6.732451 -4.520262 11.527023 34 34 34
-7.082857 -4.759315 12.136626 33 33 33
-7.180789 -4.828963 12.314235 31 31 31
-7.317857 -4.925062 12.559295 32 32 32
-7.312023 -4.925062 12.559295 34 34 34
-9.065087 -6.110725 15.582829 35 35 35
-21.901070 -14.775186 37.677883 34 34 34
-45.672157 -30.935545 78.888069 34 34 34
-10.737769 -7.278952 18.561899 34 34 34
-9.599764 -6.512746 16.608015 34 34 34
-7.714241 -5.237764 13.356709 34 34 34
-10.116798 -6.874566 17.530682 34 34 34
-12.861074 -8.760509 22.339983 34 34 34
-9.946089 -6.780393 17.290535 33 33 33
-8.016334 -5.469267 13.947062 33 33 33
-12.183058 -8.318802 21.213598 34 34 34
-8.990304 -6.148680 15.679616 35 35 35
-8.311875 -5.689296 14.508150 35 35 35
-8.305137 -5.689296 14.508150 35 35 35
-7.481458 -5.129210 13.079886 35 35 35
-6.741817 -4.625876 11.796347 35 35 35
-6.736338 -4.625876 11.796347 36 36 36
-38.929832 -26.755066 68.227516 33 33 33
-38.898144 -26.755066 68.227516 31 31 31
-14.825348 -10.205541 26.024929 36 36 36
-7.078257 -4.876539 12.435557 38 38 38
-6.935815 -4.782306 12.195257 34 34 34
-12.054968 -8.318802 21.213598 30 30 30
-12.251015 -8.461003 21.576223 31 31 31
-12.240993 -8.461003 21.576223 32 32 32
-12.336411 -8.533943 21.762226 34 34 34
-12.326303 -8.533943 21.762226 35 35 35
-12.316195 -8.533943 21.762226 35 35 35
-8.204058 -5.689296 14.508150 37 37 37
-8.197319 -5.689296 14.508150 40 40 40
-8.130377 -5.656785 14.425246 38 38 38
-8.170365 -5.689296 14.508150 56 56 56
-15.783010 -10.999305 28.049091 64 64 64
-17.308517 -12.072408 30.785587 63 63 63
-16.882452 -11.784969 30.052597 62 62 62
-15.401668 -10.760189 27.439327 61 61 61
-14.446744 -10.101402 25.759369 59 59 59
-12.408846 -8.683661 22.144018 55 55 55
-12.080648 -8.461003 21.576223 50 50 50
-11.867760 -8.318802 21.213598 39 39 39
-11.759090 -8.249478 21.036818 28 28 28
-156.657593 -109.993050 280.490906 23 23 23
-inf -inf inf 19 19 19
-117.297775 -82.494789 210.368179 21 21 21
-12.557150 -8.838727 22.539448 27 27 27
-11.152605 -7.856646 20.035065 31 31 31
-10.400413 -7.332870 18.699394 34 34 34
-10.391727 -7.332870 18.699394 35 35 35
-9.802173 -6.922639 17.653275 35 35 35
-27.461533 -19.410538 49.498394 35 35 35
-27.438543 -19.410538 49.498394 35 35 35
-22.551502 -15.966733 40.716423 35 35 35
-139.702057 -98.993744 252.441818 35 35 35
-12.924520 -9.166087 23.374243 34 34 34
-7.379236 -5.237764 13.356709 31 31 31
-7.334227 -5.210197 13.286411 34 34 34
-7.251722 -5.155924 13.148011 39 39 39
-7.245615 -5.155924 13.148011 40 40 40
-inf -inf inf 42 42 42
-46.293766 -32.997913 84.147270 46 46 46
-38.545570 -27.498262 70.122726 63 63 63
-28.884750 -20.623697 52.592045 72 72 72
-28.860323 -20.623697 52.592045 69 69 69
-60.179260 -43.040756 109.757309 67 67 67
-inf -inf inf 68 68 68
-inf -inf inf 72 72 72
-inf -inf inf 76 76 76
-inf -inf inf 79 79 79
-inf -inf inf 81 81 81
-inf -inf inf 82 82 82
-inf -inf inf 83 83 83
-10.910657 -7.856646 20.035065 79 79 79
-inf -inf inf 72 72 72
-inf -inf inf 71 71 71
-85.701576 -61.871090 157.776138 70 70 70
-26.863779 -19.410538 49.498394 69 69 69
-20.130592 -14.557903 37.123798 68 68 68
-22.421438 -16.228483 41.383904 66 66 66
-22.402216 -16.228483 41.383904 66 66 66
-20.078863 -14.557903 37.123798 65 65 65
-20.061621 -14.557903 37.123798 64 64 64
-inf -inf inf 63 63 63
-12.305796 -8.999432 22.949257 69 69 69
-10.566133 -7.733886 19.722017 71 71 71
-10.556973 -7.733886 19.722017 70 70 70
-10.715238 -7.856646 20.035065 70 70 70
-11.529466 -8.461003 21.576223 75 75 75
-11.519444 -8.461003 21.576223 76 76 76
-10.859696 -7.983366 20.358212 75 75 75
-13.728876 -10.101402 25.759369 75 75 75
-13.716912 -10.101402 25.759369 76 76 76
-12.670611 -9.339032 23.815266 75 75 75
-12.199203 -8.999432 22.949257 62 62 62
-11.970891 -8.838727 22.539448 52 52 52
-11.960423 -8.838727 22.539448 60 60 60
-11.949953 -8.838727 22.539448 61 61 61
-12.268094 -9.081995 23.159800 61 61 61
-13.360497 -9.899374 25.244183 61 61 61
-13.621196 -10.101402 25.759369 60 60 60
-13.749533 -10.205541 26.024929 60 60 60
-13.737446 -10.205541 26.024929 60 60 60
-13.448077 -9.999368 25.499174 60 60 60
-13.436234 -9.999368 25.499174 58 58 58
-13.158561 -9.801361 24.994240 57 57 57
-12.891671 -9.611043 24.508915 55 55 55
-13.266696 -9.899374 25.244183 56 56 56
-13.807261 -10.311849 26.296022 58 58 58
-13.795048 -10.311849 26.296022 59 59 59
-13.640743 -10.205541 26.024929 59 59 59
-13.219795 -9.899374 25.244183 59 59 59
-13.208071 -9.899374 25.244183 59 59 59
-14.662605 -10.999305 28.049091 58 58 58
-16.078804 -12.072408 30.785587 59 59 59
-15.317320 -11.510900 29.353699 60 60 60
-15.483729 -11.646322 29.699038 60 60 60
-15.469934 -11.646322 29.699038 61 61 61
-15.640142 -11.784969 30.052597 60 60 60
-15.814450 -11.926957 30.414677 59 59 59
-15.993011 -12.072408 30.785587 58 58 58
-16.378180 -12.374218 31.555227 59 59 59
-16.363523 -12.374218 31.555227 60 60 60
-16.348867 -12.374218 31.555227 60 60 60
-16.132553 -12.221450 31.165657 59 59 59
-16.118078 -12.221450 31.165657 60 60 60
-20.381123 -15.467772 39.444035 60 60 60
-26.064386 -19.798748 50.488365 60 60 60
-20.344481 -15.467772 39.444035 60 60 60
-16.894470 -12.856330 32.784653 60 60 60
-17.101339 -13.025493 33.216030 59 59 59
-17.313723 -13.199165 33.658909 60 60 60
-17.531847 -13.377533 34.113758 61 61 61
-17.516003 -13.377533 34.113758 60 60 60
-17.266823 -13.199165 33.658909 59 59 59
-17.024199 -13.025493 33.216030 59 59 59
-24.768780 -19.037258 48.546505 57 57 57
-20.106314 -15.467772 39.444035 57 57 57
-21.075926 -16.228483 41.383904 57 57 57
-18.349415 -14.141963 36.063118 57 57 57
-15.649836 -12.072408 30.785587 57 57 57
-11.871426 -9.166087 23.374243 57 57 57
-11.436977 -8.838727 22.539448 57 57 57
-11.226044 -8.683661 22.144018 56 56 56
-18.530382 -14.346919 36.585770 56 56 56
-19.066029 -14.775186 37.677883 56 56 56
-19.337143 -14.999052 38.248760 55 55 55
-19.319376 -14.999052 38.248760 53 53 53
-8.908436 -6.922639 17.653275 53 53 53
-8.838429 -6.874566 17.530682 54 54 54
-8.830287 -6.874566 17.530682 54 54 54
-20.146290 -15.713292 40.070129 52 52 52
-20.127678 -15.713292 40.070129 53 53 53
-21.842607 -17.067886 43.524452 53 53 53
-23.438866 -18.332174 46.748486 53 53 53
-21.802176 -17.067886 43.524452 52 52 52
-6.579967 -5.155924 13.148011 52 52 52
-6.407011 -5.025063 12.814305 53 53 53
-6.401059 -5.025063 12.814305 53 53 53
-20.653051 -16.228483 41.383904 52 52 52
-19.364056 -15.229807 38.837204 51 51 51
-7.667629 -6.036204 15.392794 51 51 51
-7.390110 -5.823161 14.849519 51 51 51
-7.172263 -5.656785 14.425246 51 51 51
-7.124850 -5.624644 14.343285 51 51 51
-7.158863 -5.656785 14.425246 51 51 51
-7.152163 -5.656785 14.425246 50 50 50
-8.449027 -6.688766 17.056879 50 50 50
-7.906857 -6.265427 15.977330 50 50 50
-6.674390 -5.293783 13.499562 50 50 50
-6.632651 -5.265625 13.427756 50 50 50
-6.959586 -5.530377 14.102895 50 50 50
-7.031601 -5.592867 14.262250 50 50 50
-7.024977 -5.592867 14.262250 49 49 49
-6.978923 -5.561446 14.182124 49 49 49
-6.972336 -5.561446 14.182124 49 49 49
-23.394403 -18.678064 47.630531 49 49 49
-23.821747 -19.037258 48.546505 48 48 48
-23.799198 -19.037258 48.546505 51 51 51
-23.776649 -19.037258 48.546505 56 56 56
-25.208435 -20.202805 51.518738 55 55 55
-24.196878 -19.410538 49.498394 44 44 44
-22.415787 -17.998863 45.898514 31 31 31
-22.394468 -17.998863 45.898514 26 26 26
-22.787466 -18.332174 46.748486 18 18 18
-23.195295 -18.678064 47.630531 16 16 16
-23.618811 -19.037258 48.546505 17 17 17
-23.596262 -19.037258 48.546505 17 17 17
-18.026958 -14.557903 37.123798 18 18 18
-17.248741 -13.942780 35.555187 19 19 19
-15.889456 -12.856330 32.784653 20 20 20
-15.278945 -12.374218 31.555227 21 21 21
-15.264289 -12.374218 31.555227 23 23 23
-15.249632 -12.374218 31.555227 25 25 25
-15.427823 -12.530853 31.954660 26 26 26
-15.610583 -12.691505 32.364334 28 28 28
-15.398139 -12.530853 31.954660 30 30 30
-15.191006 -12.374218 31.555227 32 32 32
-15.176350 -12.374218 31.555227 33 33 33
-15.161694 -12.374218 31.555227 35 35 35
-14.960036 -12.221450 31.165657 38 38 38
-15.132380 -12.374218 31.555227 39 39 39
-14.931086 -12.221450 31.165657 40 40 40
-14.734700 -12.072408 30.785587 41 41 41
-14.720401 -12.072408 30.785587 42 42 42
-inf -inf inf 46 46 46
-92.400787 -76.149033 194.186020 46 46 46
-inf -inf inf 46 46 46
-inf -inf inf 46 46 46
-inf -inf inf 45 45 45
-6.737805 -4.514908 11.527023 34 34 34
-6.466696 -4.336688 11.072009 34 34 34
-6.727097 -4.514908 11.527023 33 33 33
-7.145931 -4.799829 12.254457 30 30 30
-7.175069 -4.823244 12.314235 31 31 31
-7.169350 -4.823244 12.314235 33 33 33
-9.065087 -6.103487 15.582829 34 34 34
-20.962452 -14.125213 36.063118 34 34 34
-20.650692 -13.926267 35.555187 34 34 34
-21.866070 -14.757686 37.677883 34 34 34
-9.607477 -6.505033 16.608015 33 33 33
-7.599813 -5.149817 13.148011 34 34 34
-7.289958 -4.943825 12.622091 34 34 34
-7.509377 -5.096726 13.012465 34 34 34
-14.679812 -9.987524 25.499174 34 34 34
-12.850698 -8.750132 22.339983 33 33 33
-12.840322 -8.750132 22.339983 34 34 34
-12.183058 -8.308949 21.213598 34 34 34
-9.990423 -6.819068 17.409781 34 34 34
-9.219356 -6.297866 16.079096 35 35 35
-8.983021 -6.141397 15.679616 35 35 35
-17.410769 -11.912830 30.414677 35 35 35
-9.822594 -6.726292 17.172913 36 36 36
-8.961173 -6.141397 15.679616 36 36 36
-8.953890 -6.141397 15.679616 36 36 36
-34.295326 -23.542021 60.105194 33 33 33
-31.287636 -21.494890 54.878654 31 31 31
-14.674068 -10.089437 25.759369 36 36 36
-12.944921 -8.907792 22.742506 37 37 37
-7.037812 -4.846887 12.374599 32 32 32
-12.054968 -8.308949 21.213598 28 28 28
-12.251015 -8.450982 21.576223 27 27 27
-12.240993 -8.450982 21.576223 30 30 30
-12.230971 -8.450982 21.576223 34 34 34
-12.220950 -8.450982 21.576223 35 35 35
-12.316195 -8.523835 21.762226 36 36 36
-11.995850 -8.308949 21.213598 39 39 39
-9.679021 -6.726292 17.172913 47 47 47
-10.082578 -7.012517 17.903675 59 59 59
-14.796573 -10.299635 26.296022 62 62 62
-15.769983 -10.986277 28.049091 62 62 62
-15.414412 -10.747445 27.439327 61 61 61
-14.458709 -10.089437 25.759369 60 60 60
-12.988815 -9.071238 23.159800 59 59 59
-12.090670 -8.450982 21.576223 60 60 60
-11.778632 -8.239708 21.036818 60 60 60
-11.671598 -8.171611 20.862961 50 50 50
-11.472283 -8.038739 20.523726 35 35 35
-11.652218 -8.171611 20.862961 21 21 21
-13.290055 -9.327971 23.815266 14 14 14
-13.278994 -9.327971 23.815266 14 14 14
-12.902760 -9.071238 23.159800 18 18 18
-12.546680 -8.828259 22.539448 26 26 26
-10.717983 -7.547824 19.270369 32 32 32
-10.391727 -7.324184 18.699394 34 34 34
-9.802173 -6.914440 17.653275 34 34 34
-10.003844 -7.062606 18.031559 34 34 34
-37.820694 -26.723375 68.227516 34 34 34
-inf -inf inf 34 34 34
-inf -inf inf 34 34 34
-7.346569 -5.204026 13.286411 33 33 33
-7.340398 -5.204026 13.286411 30 30 30
-7.334227 -5.204026 13.286411 32 32 32
-7.328056 -5.204026 13.286411 35 35 35
-7.245615 -5.149817 13.148011 35 35 35
-11.583213 -8.239708 21.036818 34 34 34
-9.189672 -6.548112 16.718000 38 38 38
-12.490703 -8.907792 22.742506 38 38 38
-12.480140 -8.907792 22.742506 35 35 35
-12.698376 -9.071238 23.159800 33 33 33
-inf -inf inf 34 34 34
-inf -inf inf 37 37 37
-inf -inf inf 41 41 41
-inf -inf inf 46 46 46
-inf -inf inf 51 51 51
-inf -inf inf 55 55 55
-inf -inf inf 57 57 57
-8.985248 -6.462516 16.499466 58 58 58
-8.804937 -6.338237 16.182167 57 57 57
-8.969920 -6.462516 16.499466 56 56 56
-16.722260 -12.058108 30.785587 55 55 55
-18.267370 -13.183532 33.658909 58 58 58
-18.251736 -13.183532 33.658909 70 70 70
-18.482536 -13.361688 34.113758 74 74 74
-18.466692 -13.361688 34.113758 74 74 74
-16.650764 -12.058108 30.785587 74 74 74
-15.157668 -10.986277 28.049091 75 75 75
-14.978216 -10.865548 27.740858 74 74 74
-71.676056 -52.040260 132.864120 74 74 74
-inf -inf inf 73 73 73
-10.575293 -7.724726 19.722017 66 66 66
-10.566133 -7.724726 19.722017 65 65 65
-10.724544 -7.847341 20.035065 67 67 67
-10.715238 -7.847341 20.035065 63 63 63
-10.705932 -7.847341 20.035065 60 60 60
-10.696627 -7.847341 20.035065 58 58 58
-10.772820 -7.910120 20.195345 57 57 57
-26.908598 -19.775299 50.488365 59 59 59
-26.885147 -19.775299 50.488365 63 63 63
-13.704947 -10.089437 25.759369 65 65 65
-12.199203 -8.988772 22.949257 59 59 59
-11.970891 -8.828259 22.539448 53 53 53
-11.960423 -8.828259 22.539448 60 60 60
-11.949953 -8.828259 22.539448 60 60 60
-12.156566 -8.988772 22.949257 61 61 61
-13.917185 -10.299635 26.296022 60 60 60
-13.904971 -10.299635 26.296022 60 60 60
-13.749533 -10.193453 26.024929 60 60 60
-13.737446 -10.193453 26.024929 59 59 59
-13.725358 -10.193453 26.024929 59 59 59
-13.713270 -10.193453 26.024929 57 57 57
-13.424391 -9.987524 25.499174 55 55 55
-13.412547 -9.987524 25.499174 54 54 54
-13.964943 -10.408051 26.572823 56 56 56
-14.101033 -10.518776 26.855513 58 58 58
-13.795048 -10.299635 26.296022 58 58 58
-13.640743 -10.193453 26.024929 59 59 59
-13.489587 -10.089437 25.759369 59 59 59
-13.341485 -9.987524 25.499174 59 59 59
-13.746193 -10.299635 26.296022 58 58 58
-14.649578 -10.986277 28.049091 58 58 58
-15.141258 -11.365114 29.016300 59 59 59
-15.303685 -11.497267 29.353699 60 60 60
-15.290051 -11.497267 29.353699 61 61 61
-15.640142 -11.771010 30.052597 61 61 61
-15.814450 -11.912830 30.414677 60 60 60
-15.993011 -12.058108 30.785587 59 59 59
-16.175980 -12.206974 31.165657 59 59 59
-16.363523 -12.359561 31.555227 60 60 60
-16.147028 -12.206974 31.165657 59 59 59
-15.743817 -11.912830 30.414677 59 59 59
-15.729691 -11.912830 30.414677 60 60 60
-15.715564 -11.912830 30.414677 61 61 61
-16.290241 -12.359561 31.555227 60 60 60
-16.481604 -12.516011 31.954660 60 60 60
-16.466763 -12.516011 31.954660 59 59 59
-17.101339 -13.010065 33.216030 59 59 59
-17.085911 -13.010065 33.216030 60 60 60
-17.298090 -13.183532 33.658909 61 61 61
-17.282455 -13.183532 33.658909 60 60 60
-17.039627 -13.010065 33.216030 59 59 59
-16.587681 -12.676474 32.364334 60 60 60
-16.572649 -12.676474 32.364334 59 59 59
-20.106314 -15.449451 39.444035 57 57 57
