ply
        format ascii 1.0
        element vertex 39175
        property float x
        property float y
        property float z
        property uchar red
        property uchar green
        property uchar blue
        end_header
165.000000 -50.000000 15.600000 85 85 85
166.000000 -50.000000 12.800000 67 67 67
167.000000 -50.000000 10.800000 41 41 41
171.000000 -50.000000 7.200000 81 81 81
172.000000 -50.000000 10.400001 83 83 83
173.000000 -50.000000 14.400001 56 56 56
174.000000 -50.000000 17.200001 22 22 22
175.000000 -50.000000 17.200001 17 17 17
176.000000 -50.000000 17.200001 17 17 17
177.000000 -50.000000 13.200000 17 17 17
178.000000 -50.000000 14.000000 17 17 17
179.000000 -50.000000 13.600000 18 18 18
180.000000 -50.000000 14.000000 33 33 33
181.000000 -50.000000 14.400001 72 72 72
182.000000 -50.000000 14.800000 85 85 85
183.000000 -50.000000 14.400001 85 85 85
184.000000 -50.000000 14.800000 85 85 85
185.000000 -50.000000 14.000000 85 85 85
186.000000 -50.000000 14.800000 84 84 84
187.000000 -50.000000 14.400001 82 82 82
188.000000 -50.000000 14.800000 66 66 66
189.000000 -50.000000 14.400001 27 27 27
190.000000 -50.000000 14.000000 15 15 15
191.000000 -50.000000 13.200000 15 15 15
192.000000 -50.000000 14.000000 15 15 15
193.000000 -50.000000 12.400001 14 14 14
194.000000 -50.000000 12.400001 14 14 14
195.000000 -50.000000 12.000000 15 15 15
196.000000 -50.000000 12.000000 17 17 17
197.000000 -50.000000 12.800000 43 43 43
198.000000 -50.000000 12.800000 76 76 76
199.000000 -50.000000 14.000000 80 80 80
200.000000 -50.000000 14.000000 80 80 80
201.000000 -50.000000 14.000000 79 79 79
202.000000 -50.000000 11.600000 79 79 79
203.000000 -50.000000 0.000000 78 78 78
204.000000 -50.000000 6.400000 77 77 77
205.000000 -50.000000 6.800000 75 75 75
206.000000 -50.000000 10.800000 63 63 63
207.000000 -50.000000 0.000000 34 34 34
214.000000 -50.000000 0.000000 75 75 75
215.000000 -50.000000 0.000000 76 76 76
216.000000 -50.000000 0.000000 76 76 76
217.000000 -50.000000 0.000000 76 76 76
218.000000 -50.000000 0.000000 76 76 76
219.000000 -50.000000 4.800000 77 77 77
220.000000 -50.000000 6.000000 72 72 72
221.000000 -50.000000 10.000000 58 58 58
222.000000 -50.000000 10.400001 56 56 56
223.000000 -50.000000 10.000000 54 54 54
224.000000 -50.000000 9.600000 41 41 41
225.000000 -50.000000 9.600000 28 28 28
226.000000 -50.000000 9.600000 19 19 19
227.000000 -50.000000 9.200000 9 9 9
228.000000 -50.000000 9.200000 8 8 8
229.000000 -50.000000 10.000000 8 8 8
230.000000 -50.000000 9.200000 9 9 9
231.000000 -50.000000 4.400000 10 10 10
232.000000 -50.000000 4.000000 10 10 10
233.000000 -50.000000 4.800000 12 12 12
234.000000 -50.000000 5.600000 15 15 15
235.000000 -50.000000 10.800000 18 18 18
236.000000 -50.000000 13.200000 22 22 22
237.000000 -50.000000 14.000000 22 22 22
238.000000 -50.000000 14.000000 28 28 28
239.000000 -50.000000 14.000000 48 48 48
240.000000 -50.000000 13.200000 48 48 48
241.000000 -50.000000 13.200000 32 32 32
242.000000 -50.000000 12.400001 31 31 31
243.000000 -50.000000 13.200000 39 39 39
244.000000 -50.000000 17.200001 47 47 47
245.000000 -50.000000 19.200001 54 54 54
246.000000 -50.000000 19.600000 56 56 56
247.000000 -50.000000 20.000000 56 56 56
248.000000 -50.000000 19.600000 57 57 57
249.000000 -50.000000 18.000000 57 57 57
250.000000 -50.000000 16.800001 57 57 57
251.000000 -50.000000 14.800000 57 57 57
16.000000 -51.000000 83.200005 52 52 52
17.000000 -51.000000 84.800003 52 52 52
18.000000 -51.000000 83.200005 52 52 52
19.000000 -51.000000 83.200005 52 52 52
20.000000 -51.000000 82.400002 52 52 52
21.000000 -51.000000 82.400002 51 51 51
22.000000 -51.000000 21.200001 51 51 51
23.000000 -51.000000 23.600000 51 51 51
24.000000 -51.000000 23.600000 51 51 51
25.000000 -51.000000 65.200005 50 50 50
26.000000 -51.000000 67.200005 50 50 50
27.000000 -51.000000 71.599998 51 51 51
28.000000 -51.000000 77.200005 51 51 51
29.000000 -51.000000 90.000000 51 51 51
30.000000 -51.000000 76.400002 51 51 51
31.000000 -51.000000 23.200001 51 51 51
36.000000 -51.000000 22.400000 51 51 51
37.000000 -51.000000 28.800001 51 51 51
38.000000 -51.000000 35.200001 51 51 51
39.000000 -51.000000 66.800003 51 51 51
40.000000 -51.000000 96.000000 51 51 51
41.000000 -51.000000 96.000000 51 51 51
42.000000 -51.000000 86.400002 51 51 51
43.000000 -51.000000 83.200005 51 51 51
44.000000 -51.000000 74.000000 51 51 51
45.000000 -51.000000 73.599998 50 50 50
46.000000 -51.000000 73.200005 51 51 51
47.000000 -51.000000 72.000000 52 52 52
48.000000 -51.000000 72.000000 54 54 54
49.000000 -51.000000 71.599998 53 53 53
50.000000 -51.000000 71.599998 53 53 53
51.000000 -51.000000 71.200005 52 52 52
52.000000 -51.000000 71.200005 47 47 47
53.000000 -51.000000 70.800003 46 46 46
54.000000 -51.000000 69.599998 48 48 48
55.000000 -51.000000 68.000000 49 49 49
56.000000 -51.000000 67.200005 50 50 50
57.000000 -51.000000 67.200005 50 50 50
58.000000 -51.000000 70.400002 51 51 51
59.000000 -51.000000 71.200005 52 52 52
60.000000 -51.000000 71.200005 52 52 52
61.000000 -51.000000 70.400002 53 53 53
62.000000 -51.000000 70.400002 56 56 56
63.000000 -51.000000 69.599998 59 59 59
64.000000 -51.000000 69.599998 58 58 58
65.000000 -51.000000 69.599998 50 50 50
66.000000 -51.000000 70.400002 46 46 46
67.000000 -51.000000 70.400002 45 45 45
68.000000 -51.000000 69.200005 44 44 44
69.000000 -51.000000 68.800003 44 44 44
70.000000 -51.000000 69.200005 43 43 43
71.000000 -51.000000 69.200005 41 41 41
72.000000 -51.000000 66.000000 37 37 37
73.000000 -51.000000 65.599998 32 32 32
74.000000 -51.000000 65.599998 39 39 39
75.000000 -51.000000 64.000000 45 45 45
76.000000 -51.000000 63.200001 48 48 48
77.000000 -51.000000 60.000000 50 50 50
78.000000 -51.000000 59.200001 53 53 53
79.000000 -51.000000 59.200001 54 54 54
80.000000 -51.000000 62.799999 55 55 55
81.000000 -51.000000 64.800003 56 56 56
82.000000 -51.000000 65.599998 57 57 57
83.000000 -51.000000 63.200001 57 57 57
84.000000 -51.000000 59.600002 54 54 54
85.000000 -51.000000 59.600002 59 59 59
86.000000 -51.000000 62.000000 63 63 63
87.000000 -51.000000 65.200005 65 65 65
88.000000 -51.000000 65.200005 66 66 66
89.000000 -51.000000 52.000000 67 67 67
90.000000 -51.000000 52.000000 73 73 73
91.000000 -51.000000 53.600002 98 98 98
92.000000 -51.000000 53.600002 111 111 111
93.000000 -51.000000 52.400002 111 111 111
94.000000 -51.000000 52.400002 110 110 110
95.000000 -51.000000 51.600002 105 105 105
96.000000 -51.000000 52.000000 80 80 80
97.000000 -51.000000 51.600002 80 80 80
98.000000 -51.000000 52.000000 102 102 102
99.000000 -51.000000 50.799999 96 96 96
100.000000 -51.000000 51.200001 74 74 74
101.000000 -51.000000 50.799999 82 82 82
102.000000 -51.000000 51.200001 89 89 89
103.000000 -51.000000 50.000000 95 95 95
104.000000 -51.000000 51.200001 104 104 104
105.000000 -51.000000 50.000000 114 114 114
106.000000 -51.000000 50.000000 109 109 109
107.000000 -51.000000 32.000000 90 90 90
108.000000 -51.000000 51.200001 103 103 103
109.000000 -51.000000 51.200001 104 104 104
110.000000 -51.000000 51.200001 96 96 96
111.000000 -51.000000 49.600002 92 92 92
112.000000 -51.000000 48.000000 83 83 83
113.000000 -51.000000 46.000000 87 87 87
114.000000 -51.000000 46.400002 88 88 88
115.000000 -51.000000 48.799999 91 91 91
116.000000 -51.000000 51.200001 93 93 93
117.000000 -51.000000 47.200001 96 96 96
118.000000 -51.000000 44.000000 103 103 103
119.000000 -51.000000 44.000000 112 112 112
120.000000 -51.000000 43.600002 114 114 114
121.000000 -51.000000 42.400002 103 103 103
122.000000 -51.000000 40.000000 88 88 88
123.000000 -51.000000 38.799999 89 89 89
124.000000 -51.000000 38.799999 95 95 95
125.000000 -51.000000 39.200001 93 93 93
126.000000 -51.000000 40.000000 85 85 85
127.000000 -51.000000 44.799999 87 87 87
128.000000 -51.000000 43.600002 88 88 88
129.000000 -51.000000 44.799999 89 89 89
130.000000 -51.000000 49.200001 97 97 97
131.000000 -51.000000 32.400002 106 106 106
132.000000 -51.000000 32.400002 102 102 102
133.000000 -51.000000 32.000000 78 78 78
134.000000 -51.000000 32.000000 56 56 56
135.000000 -51.000000 32.000000 64 64 64
136.000000 -51.000000 26.400000 67 67 67
137.000000 -51.000000 26.400000 67 67 67
138.000000 -51.000000 28.000000 75 75 75
139.000000 -51.000000 31.600000 92 92 92
140.000000 -51.000000 31.600000 96 96 96
141.000000 -51.000000 31.600000 95 95 95
142.000000 -51.000000 30.000000 94 94 94
143.000000 -51.000000 28.400000 78 78 78
144.000000 -51.000000 28.000000 37 37 37
145.000000 -51.000000 26.800001 22 22 22
146.000000 -51.000000 25.600000 22 22 22
147.000000 -51.000000 25.200001 22 22 22
148.000000 -51.000000 25.200001 30 30 30
149.000000 -51.000000 24.400000 69 69 69
150.000000 -51.000000 24.400000 92 92 92
151.000000 -51.000000 23.200001 93 93 93
152.000000 -51.000000 23.200001 93 93 93
153.000000 -51.000000 23.600000 90 90 90
154.000000 -51.000000 24.400000 63 63 63
155.000000 -51.000000 24.400000 26 26 26
156.000000 -51.000000 25.200001 20 20 20
157.000000 -51.000000 22.000000 20 20 20
158.000000 -51.000000 20.000000 20 20 20
159.000000 -51.000000 20.400000 23 23 23
160.000000 -51.000000 20.000000 54 54 54
161.000000 -51.000000 20.000000 85 85 85
162.000000 -51.000000 17.600000 87 87 87
163.000000 -51.000000 14.400001 82 82 82
164.000000 -51.000000 14.400001 74 74 74
165.000000 -51.000000 12.800000 61 61 61
166.000000 -51.000000 10.800000 55 55 55
169.000000 -51.000000 8.800000 87 87 87
170.000000 -51.000000 12.400001 88 88 88
171.000000 -51.000000 14.000000 89 89 89
172.000000 -51.000000 15.200000 84 84 84
173.000000 -51.000000 18.000000 53 53 53
174.000000 -51.000000 18.000000 21 21 21
175.000000 -51.000000 17.600000 17 17 17
176.000000 -51.000000 17.200001 17 17 17
177.000000 -51.000000 13.200000 17 17 17
178.000000 -51.000000 14.000000 17 17 17
179.000000 -51.000000 14.000000 18 18 18
180.000000 -51.000000 15.600000 34 34 34
181.000000 -51.000000 16.400000 73 73 73
182.000000 -51.000000 16.800001 85 85 85
183.000000 -51.000000 17.600000 85 85 85
184.000000 -51.000000 18.000000 85 85 85
185.000000 -51.000000 16.400000 85 85 85
186.000000 -51.000000 15.600000 84 84 84
187.000000 -51.000000 15.200000 83 83 83
188.000000 -51.000000 15.200000 65 65 65
189.000000 -51.000000 14.800000 26 26 26
190.000000 -51.000000 13.200000 15 15 15
191.000000 -51.000000 12.800000 15 15 15
192.000000 -51.000000 12.800000 15 15 15
193.000000 -51.000000 12.000000 15 15 15
194.000000 -51.000000 12.400001 15 15 15
195.000000 -51.000000 12.000000 15 15 15
196.000000 -51.000000 12.000000 17 17 17
197.000000 -51.000000 12.800000 43 43 43
198.000000 -51.000000 12.800000 75 75 75
199.000000 -51.000000 12.800000 80 80 80
200.000000 -51.000000 12.800000 79 79 79
201.000000 -51.000000 11.600000 77 77 77
202.000000 -51.000000 0.000000 75 75 75
203.000000 -51.000000 0.000000 70 70 70
204.000000 -51.000000 0.000000 62 62 62
205.000000 -51.000000 0.000000 53 53 53
206.000000 -51.000000 6.000000 45 45 45
207.000000 -51.000000 0.000000 53 53 53
214.000000 -51.000000 0.000000 76 76 76
215.000000 -51.000000 91.599998 76 76 76
216.000000 -51.000000 91.599998 76 76 76
217.000000 -51.000000 0.000000 76 76 76
218.000000 -51.000000 0.000000 73 73 73
219.000000 -51.000000 4.400000 71 71 71
220.000000 -51.000000 5.200000 67 67 67
221.000000 -51.000000 10.000000 56 56 56
222.000000 -51.000000 10.400001 55 55 55
223.000000 -51.000000 10.400001 54 54 54
224.000000 -51.000000 10.000000 40 40 40
225.000000 -51.000000 9.600000 28 28 28
226.000000 -51.000000 9.600000 19 19 19
227.000000 -51.000000 9.200000 9 9 9
228.000000 -51.000000 9.200000 8 8 8
229.000000 -51.000000 9.200000 8 8 8
230.000000 -51.000000 9.200000 9 9 9
231.000000 -51.000000 9.200000 10 10 10
232.000000 -51.000000 4.400000 12 12 12
233.000000 -51.000000 4.400000 15 15 15
234.000000 -51.000000 4.800000 19 19 19
235.000000 -51.000000 5.200000 20 20 20
236.000000 -51.000000 14.000000 19 19 19
237.000000 -51.000000 15.600000 17 17 17
238.000000 -51.000000 15.600000 28 28 28
239.000000 -51.000000 14.000000 48 48 48
240.000000 -51.000000 13.200000 47 47 47
241.000000 -51.000000 13.200000 32 32 32
242.000000 -51.000000 12.400001 31 31 31
243.000000 -51.000000 13.200000 39 39 39
244.000000 -51.000000 17.200001 46 46 46
245.000000 -51.000000 19.600000 53 53 53
246.000000 -51.000000 19.600000 55 55 55
247.000000 -51.000000 19.600000 56 56 56
248.000000 -51.000000 19.200001 56 56 56
249.000000 -51.000000 17.600000 56 56 56
250.000000 -51.000000 17.600000 56 56 56
251.000000 -51.000000 17.600000 57 57 57
16.000000 -52.000000 83.200005 52 52 52
17.000000 -52.000000 84.800003 52 52 52
18.000000 -52.000000 83.200005 52 52 52
19.000000 -52.000000 83.200005 52 52 52
20.000000 -52.000000 82.800003 51 51 51
21.000000 -52.000000 82.400002 51 51 51
22.000000 -52.000000 21.200001 51 51 51
23.000000 -52.000000 21.200001 51 51 51
24.000000 -52.000000 23.600000 51 51 51
25.000000 -52.000000 24.800001 50 50 50
26.000000 -52.000000 67.200005 51 51 51
27.000000 -52.000000 71.599998 50 50 50
28.000000 -52.000000 76.800003 51 51 51
29.000000 -52.000000 76.800003 51 51 51
30.000000 -52.000000 76.400002 51 51 51
31.000000 -52.000000 29.600000 51 51 51
32.000000 -52.000000 29.600000 51 51 51
33.000000 -52.000000 34.799999 51 51 51
34.000000 -52.000000 41.200001 51 51 51
35.000000 -52.000000 48.400002 51 51 51
36.000000 -52.000000 54.000000 51 51 51
37.000000 -52.000000 60.400002 51 51 51
38.000000 -52.000000 60.799999 51 51 51
39.000000 -52.000000 66.800003 51 51 51
40.000000 -52.000000 91.599998 51 51 51
41.000000 -52.000000 86.400002 51 51 51
42.000000 -52.000000 85.200005 51 51 51
43.000000 -52.000000 83.200005 51 51 51
44.000000 -52.000000 74.800003 51 51 51
45.000000 -52.000000 73.200005 50 50 50
46.000000 -52.000000 73.200005 51 51 51
47.000000 -52.000000 72.400002 52 52 52
48.000000 -52.000000 72.000000 54 54 54
49.000000 -52.000000 72.000000 53 53 53
50.000000 -52.000000 72.400002 53 53 53
51.000000 -52.000000 71.599998 52 52 52
52.000000 -52.000000 71.200005 47 47 47
53.000000 -52.000000 70.800003 45 45 45
54.000000 -52.000000 70.000000 48 48 48
55.000000 -52.000000 68.400002 49 49 49
56.000000 -52.000000 64.800003 50 50 50
57.000000 -52.000000 64.800003 50 50 50
58.000000 -52.000000 72.800003 51 51 51
59.000000 -52.000000 72.800003 52 52 52
60.000000 -52.000000 72.000000 52 52 52
61.000000 -52.000000 70.800003 53 53 53
62.000000 -52.000000 70.400002 56 56 56
63.000000 -52.000000 69.599998 60 60 60
64.000000 -52.000000 69.599998 58 58 58
65.000000 -52.000000 69.599998 50 50 50
66.000000 -52.000000 70.400002 46 46 46
67.000000 -52.000000 70.400002 46 46 46
68.000000 -52.000000 66.400002 45 45 45
69.000000 -52.000000 66.400002 44 44 44
70.000000 -52.000000 69.200005 43 43 43
71.000000 -52.000000 69.200005 42 42 42
72.000000 -52.000000 65.599998 38 38 38
73.000000 -52.000000 65.599998 33 33 33
74.000000 -52.000000 64.000000 40 40 40
75.000000 -52.000000 64.000000 45 45 45
76.000000 -52.000000 57.200001 48 48 48
77.000000 -52.000000 56.000000 51 51 51
78.000000 -52.000000 56.000000 53 53 53
79.000000 -52.000000 56.000000 54 54 54
80.000000 -52.000000 59.200001 55 55 55
81.000000 -52.000000 62.799999 56 56 56
82.000000 -52.000000 63.200001 57 57 57
83.000000 -52.000000 62.799999 57 57 57
84.000000 -52.000000 60.000000 53 53 53
85.000000 -52.000000 60.000000 58 58 58
86.000000 -52.000000 60.799999 63 63 63
87.000000 -52.000000 62.000000 65 65 65
88.000000 -52.000000 60.400002 66 66 66
89.000000 -52.000000 52.000000 66 66 66
90.000000 -52.000000 52.400002 72 72 72
91.000000 -52.000000 53.600002 98 98 98
92.000000 -52.000000 53.600002 111 111 111
93.000000 -52.000000 52.799999 111 111 111
94.000000 -52.000000 52.799999 110 110 110
95.000000 -52.000000 52.000000 104 104 104
96.000000 -52.000000 52.000000 79 79 79
97.000000 -52.000000 51.600002 80 80 80
98.000000 -52.000000 52.000000 102 102 102
99.000000 -52.000000 50.799999 96 96 96
100.000000 -52.000000 51.200001 73 73 73
101.000000 -52.000000 50.799999 79 79 79
102.000000 -52.000000 50.000000 89 89 89
103.000000 -52.000000 48.799999 100 100 100
104.000000 -52.000000 50.000000 114 114 114
105.000000 -52.000000 49.200001 117 117 117
106.000000 -52.000000 50.000000 108 108 108
107.000000 -52.000000 50.400002 93 93 93
108.000000 -52.000000 51.200001 106 106 106
109.000000 -52.000000 51.200001 102 102 102
110.000000 -52.000000 51.200001 92 92 92
111.000000 -52.000000 49.600002 91 91 91
112.000000 -52.000000 45.200001 83 83 83
113.000000 -52.000000 44.799999 86 86 86
114.000000 -52.000000 18.000000 87 87 87
115.000000 -52.000000 18.000000 89 89 89
116.000000 -52.000000 31.200001 90 90 90
117.000000 -52.000000 37.600002 91 91 91
118.000000 -52.000000 40.799999 92 92 92
119.000000 -52.000000 42.400002 94 94 94
120.000000 -52.000000 41.200001 97 97 97
121.000000 -52.000000 40.400002 93 93 93
122.000000 -52.000000 40.000000 85 85 85
123.000000 -52.000000 39.600002 87 87 87
124.000000 -52.000000 39.200001 92 92 92
125.000000 -52.000000 39.200001 90 90 90
126.000000 -52.000000 39.600002 83 83 83
127.000000 -52.000000 41.200001 84 84 84
128.000000 -52.000000 41.200001 83 83 83
129.000000 -52.000000 43.600002 84 84 84
130.000000 -52.000000 32.799999 89 89 89
131.000000 -52.000000 32.400002 102 102 102
132.000000 -52.000000 32.400002 101 101 101
133.000000 -52.000000 32.000000 76 76 76
134.000000 -52.000000 32.000000 56 56 56
135.000000 -52.000000 32.000000 64 64 64
136.000000 -52.000000 28.800001 67 67 67
137.000000 -52.000000 28.000000 67 67 67
138.000000 -52.000000 28.800001 76 76 76
139.000000 -52.000000 31.600000 93 93 93
140.000000 -52.000000 31.600000 95 95 95
141.000000 -52.000000 31.600000 95 95 95
142.000000 -52.000000 30.400000 93 93 93
143.000000 -52.000000 28.800001 77 77 77
144.000000 -52.000000 28.000000 36 36 36
145.000000 -52.000000 27.200001 22 22 22
146.000000 -52.000000 25.600000 22 22 22
147.000000 -52.000000 25.200001 22 22 22
148.000000 -52.000000 25.200001 31 31 31
149.000000 -52.000000 24.800001 71 71 71
150.000000 -52.000000 24.800001 92 92 92
151.000000 -52.000000 24.000000 92 92 92
152.000000 -52.000000 23.200001 92 92 92
153.000000 -52.000000 23.600000 90 90 90
154.000000 -52.000000 24.400000 61 61 61
155.000000 -52.000000 24.400000 26 26 26
156.000000 -52.000000 22.000000 20 20 20
157.000000 -52.000000 19.200001 20 20 20
158.000000 -52.000000 18.800001 20 20 20
159.000000 -52.000000 19.200001 24 24 24
160.000000 -52.000000 18.800001 51 51 51
161.000000 -52.000000 18.000000 72 72 72
162.000000 -52.000000 17.600000 63 63 63
163.000000 -52.000000 14.400001 48 48 48
164.000000 -52.000000 14.400001 35 35 35
165.000000 -52.000000 14.400001 27 27 27
166.000000 -52.000000 12.800000 42 42 42
167.000000 -52.000000 10.800000 80 80 80
168.000000 -52.000000 10.800000 90 90 90
169.000000 -52.000000 12.800000 89 89 89
170.000000 -52.000000 14.000000 89 89 89
171.000000 -52.000000 15.200000 89 89 89
172.000000 -52.000000 16.000000 84 84 84
173.000000 -52.000000 18.000000 51 51 51
174.000000 -52.000000 18.000000 21 21 21
175.000000 -52.000000 18.000000 17 17 17
176.000000 -52.000000 17.600000 17 17 17
177.000000 -52.000000 16.800001 17 17 17
178.000000 -52.000000 16.800001 17 17 17
179.000000 -52.000000 16.400000 18 18 18
180.000000 -52.000000 16.800001 35 35 35
181.000000 -52.000000 16.800001 74 74 74
182.000000 -52.000000 17.600000 85 85 85
183.000000 -52.000000 18.000000 85 85 85
184.000000 -52.000000 18.400000 85 85 85
185.000000 -52.000000 17.600000 85 85 85
186.000000 -52.000000 16.400000 84 84 84
187.000000 -52.000000 15.600000 83 83 83
188.000000 -52.000000 15.600000 63 63 63
189.000000 -52.000000 15.200000 25 25 25
190.000000 -52.000000 12.800000 15 15 15
191.000000 -52.000000 12.800000 15 15 15
192.000000 -52.000000 10.800000 15 15 15
193.000000 -52.000000 7.600000 15 15 15
194.000000 -52.000000 8.800000 15 15 15
195.000000 -52.000000 10.800000 15 15 15
196.000000 -52.000000 12.000000 17 17 17
197.000000 -52.000000 12.000000 42 42 42
198.000000 -52.000000 12.400001 72 72 72
199.000000 -52.000000 12.400001 73 73 73
200.000000 -52.000000 11.200000 67 67 67
204.000000 -52.000000 0.000000 27 27 27
205.000000 -52.000000 0.000000 21 21 21
206.000000 -52.000000 6.000000 27 27 27
207.000000 -52.000000 74.400002 62 62 62
208.000000 -52.000000 76.400002 77 77 77
209.000000 -52.000000 77.599998 78 78 78
214.000000 -52.000000 91.599998 76 76 76
215.000000 -52.000000 91.599998 76 76 76
216.000000 -52.000000 91.599998 76 76 76
217.000000 -52.000000 0.000000 76 76 76
218.000000 -52.000000 0.000000 71 71 71
219.000000 -52.000000 0.000000 65 65 65
220.000000 -52.000000 5.200000 64 64 64
221.000000 -52.000000 10.000000 55 55 55
222.000000 -52.000000 10.400001 55 55 55
223.000000 -52.000000 10.400001 54 54 54
224.000000 -52.000000 10.400001 40 40 40
225.000000 -52.000000 10.400001 27 27 27
226.000000 -52.000000 10.400001 19 19 19
227.000000 -52.000000 9.600000 10 10 10
228.000000 -52.000000 9.200000 9 9 9
229.000000 -52.000000 10.000000 9 9 9
230.000000 -52.000000 10.800000 10 10 10
231.000000 -52.000000 10.800000 12 12 12
232.000000 -52.000000 4.400000 13 13 13
235.000000 -52.000000 5.200000 13 13 13
236.000000 -52.000000 37.600002 13 13 13
237.000000 -52.000000 16.800001 14 14 14
238.000000 -52.000000 15.600000 28 28 28
239.000000 -52.000000 14.000000 48 48 48
240.000000 -52.000000 13.200000 47 47 47
241.000000 -52.000000 13.200000 31 31 31
242.000000 -52.000000 12.400001 31 31 31
243.000000 -52.000000 13.200000 39 39 39
244.000000 -52.000000 17.200001 46 46 46
245.000000 -52.000000 19.200001 52 52 52
246.000000 -52.000000 19.600000 55 55 55
247.000000 -52.000000 19.200001 56 56 56
248.000000 -52.000000 18.000000 56 56 56
249.000000 -52.000000 17.600000 56 56 56
250.000000 -52.000000 17.600000 55 55 55
251.000000 -52.000000 18.000000 56 56 56
252.000000 -52.000000 18.000000 57 57 57
16.000000 -53.000000 83.200005 52 52 52
17.000000 -53.000000 83.200005 52 52 52
18.000000 -53.000000 83.200005 52 52 52
19.000000 -53.000000 83.599998 51 51 51
20.000000 -53.000000 83.599998 51 51 51
21.000000 -53.000000 81.200005 51 51 51
22.000000 -53.000000 21.200001 51 51 51
23.000000 -53.000000 21.200001 51 51 51
24.000000 -53.000000 23.600000 50 50 50
25.000000 -53.000000 26.400000 50 50 50
26.000000 -53.000000 71.200005 50 50 50
27.000000 -53.000000 73.599998 50 50 50
28.000000 -53.000000 76.800003 51 51 51
29.000000 -53.000000 76.800003 51 51 51
30.000000 -53.000000 76.800003 51 51 51
31.000000 -53.000000 51.200001 51 51 51
32.000000 -53.000000 51.200001 51 51 51
33.000000 -53.000000 51.200001 51 51 51
34.000000 -53.000000 52.799999 51 51 51
35.000000 -53.000000 54.400002 51 51 51
36.000000 -53.000000 60.400002 51 51 51
37.000000 -53.000000 64.000000 51 51 51
38.000000 -53.000000 60.799999 51 51 51
40.000000 -53.000000 86.000000 51 51 51
41.000000 -53.000000 88.000000 51 51 51
42.000000 -53.000000 86.400002 51 51 51
43.000000 -53.000000 85.200005 51 51 51
44.000000 -53.000000 74.000000 50 50 50
45.000000 -53.000000 73.200005 50 50 50
46.000000 -53.000000 72.800003 51 51 51
47.000000 -53.000000 72.800003 52 52 52
48.000000 -53.000000 72.400002 54 54 54
49.000000 -53.000000 72.800003 53 53 53
50.000000 -53.000000 72.800003 53 53 53
51.000000 -53.000000 72.800003 52 52 52
52.000000 -53.000000 71.200005 47 47 47
53.000000 -53.000000 71.200005 45 45 45
54.000000 -53.000000 70.000000 48 48 48
55.000000 -53.000000 68.400002 49 49 49
56.000000 -53.000000 60.400002 50 50 50
57.000000 -53.000000 59.200001 50 50 50
58.000000 -53.000000 59.200001 51 51 51
59.000000 -53.000000 72.400002 52 52 52
60.000000 -53.000000 72.000000 52 52 52
61.000000 -53.000000 71.200005 53 53 53
62.000000 -53.000000 70.800003 56 56 56
63.000000 -53.000000 69.599998 60 60 60
64.000000 -53.000000 69.599998 58 58 58
65.000000 -53.000000 69.599998 49 49 49
66.000000 -53.000000 70.400002 47 47 47
67.000000 -53.000000 70.400002 46 46 46
68.000000 -53.000000 66.800003 46 46 46
69.000000 -53.000000 66.800003 44 44 44
70.000000 -53.000000 69.599998 43 43 43
71.000000 -53.000000 69.200005 42 42 42
72.000000 -53.000000 65.599998 39 39 39
73.000000 -53.000000 65.599998 35 35 35
74.000000 -53.000000 64.000000 40 40 40
75.000000 -53.000000 54.400002 46 46 46
76.000000 -53.000000 48.799999 48 48 48
77.000000 -53.000000 48.799999 51 51 51
78.000000 -53.000000 50.400002 53 53 53
79.000000 -53.000000 50.400002 55 55 55
80.000000 -53.000000 50.400002 55 55 55
81.000000 -53.000000 59.200001 56 56 56
82.000000 -53.000000 62.799999 57 57 57
83.000000 -53.000000 62.799999 57 57 57
84.000000 -53.000000 62.000000 52 52 52
85.000000 -53.000000 60.799999 58 58 58
86.000000 -53.000000 60.799999 63 63 63
87.000000 -53.000000 61.200001 65 65 65
88.000000 -53.000000 60.400002 66 66 66
89.000000 -53.000000 52.000000 66 66 66
90.000000 -53.000000 52.400002 72 72 72
91.000000 -53.000000 54.000000 98 98 98
92.000000 -53.000000 54.000000 111 111 111
93.000000 -53.000000 52.799999 111 111 111
94.000000 -53.000000 52.799999 109 109 109
95.000000 -53.000000 52.000000 104 104 104
96.000000 -53.000000 52.000000 79 79 79
97.000000 -53.000000 51.600002 80 80 80
98.000000 -53.000000 52.000000 101 101 101
99.000000 -53.000000 50.799999 96 96 96
100.000000 -53.000000 51.200001 72 72 72
101.000000 -53.000000 50.799999 77 77 77
102.000000 -53.000000 49.600002 88 88 88
103.000000 -53.000000 48.400002 102 102 102
104.000000 -53.000000 49.200001 113 113 113
105.000000 -53.000000 48.400002 112 112 112
106.000000 -53.000000 49.200001 108 108 108
107.000000 -53.000000 49.200001 109 109 109
108.000000 -53.000000 50.799999 112 112 112
109.000000 -53.000000 50.799999 89 89 89
110.000000 -53.000000 49.600002 79 79 79
111.000000 -53.000000 30.400000 88 88 88
112.000000 -53.000000 26.800001 83 83 83
113.000000 -53.000000 13.600000 86 86 86
114.000000 -53.000000 13.600000 86 86 86
115.000000 -53.000000 14.400001 88 88 88
116.000000 -53.000000 18.000000 89 89 89
117.000000 -53.000000 20.400000 89 89 89
118.000000 -53.000000 27.600000 89 89 89
119.000000 -53.000000 40.400002 89 89 89
120.000000 -53.000000 40.799999 93 93 93
121.000000 -53.000000 40.400002 90 90 90
122.000000 -53.000000 40.000000 83 83 83
123.000000 -53.000000 38.400002 86 86 86
124.000000 -53.000000 39.200001 90 90 90
125.000000 -53.000000 38.400002 88 88 88
126.000000 -53.000000 39.200001 83 83 83
127.000000 -53.000000 39.200001 84 84 84
128.000000 -53.000000 40.000000 83 83 83
129.000000 -53.000000 37.200001 83 83 83
130.000000 -53.000000 32.799999 87 87 87
131.000000 -53.000000 32.400002 101 101 101
132.000000 -53.000000 32.400002 101 101 101
133.000000 -53.000000 32.000000 75 75 75
134.000000 -53.000000 32.000000 56 56 56
135.000000 -53.000000 32.000000 64 64 64
136.000000 -53.000000 29.600000 67 67 67
137.000000 -53.000000 29.200001 67 67 67
138.000000 -53.000000 29.200001 78 78 78
139.000000 -53.000000 31.600000 93 93 93
140.000000 -53.000000 31.600000 95 95 95
141.000000 -53.000000 31.600000 95 95 95
142.000000 -53.000000 30.800001 93 93 93
143.000000 -53.000000 28.800001 76 76 76
144.000000 -53.000000 28.400000 35 35 35
145.000000 -53.000000 27.200001 22 22 22
146.000000 -53.000000 25.600000 22 22 22
147.000000 -53.000000 25.600000 22 22 22
148.000000 -53.000000 25.600000 31 31 31
149.000000 -53.000000 24.800001 72 72 72
150.000000 -53.000000 24.800001 92 92 92
151.000000 -53.000000 24.400000 92 92 92
152.000000 -53.000000 24.000000 92 92 92
153.000000 -53.000000 23.600000 89 89 89
154.000000 -53.000000 24.000000 60 60 60
155.000000 -53.000000 22.000000 25 25 25
156.000000 -53.000000 19.200001 22 22 22
157.000000 -53.000000 19.200001 25 25 25
158.000000 -53.000000 18.800001 32 32 32
159.000000 -53.000000 18.800001 41 41 41
160.000000 -53.000000 18.800001 44 44 44
161.000000 -53.000000 17.600000 36 36 36
162.000000 -53.000000 17.600000 27 27 27
163.000000 -53.000000 17.600000 22 22 22
164.000000 -53.000000 18.400000 20 20 20
165.000000 -53.000000 18.400000 21 21 21
166.000000 -53.000000 18.000000 44 44 44
167.000000 -53.000000 16.000000 82 82 82
168.000000 -53.000000 16.000000 89 89 89
169.000000 -53.000000 14.400001 90 90 90
170.000000 -53.000000 14.400001 89 89 89
171.000000 -53.000000 15.200000 89 89 89
172.000000 -53.000000 18.000000 83 83 83
173.000000 -53.000000 18.400000 49 49 49
174.000000 -53.000000 18.800001 20 20 20
175.000000 -53.000000 18.800001 17 17 17
176.000000 -53.000000 18.000000 17 17 17
177.000000 -53.000000 17.600000 17 17 17
178.000000 -53.000000 17.600000 17 17 17
179.000000 -53.000000 17.200001 18 18 18
180.000000 -53.000000 17.200001 36 36 36
181.000000 -53.000000 17.600000 75 75 75
182.000000 -53.000000 18.000000 85 85 85
183.000000 -53.000000 18.000000 86 86 86
184.000000 -53.000000 18.400000 86 86 86
185.000000 -53.000000 16.800001 85 85 85
186.000000 -53.000000 16.400000 84 84 84
187.000000 -53.000000 16.000000 83 83 83
188.000000 -53.000000 15.600000 62 62 62
189.000000 -53.000000 15.200000 24 24 24
190.000000 -53.000000 12.800000 16 16 16
191.000000 -53.000000 0.000000 15 15 15
192.000000 -53.000000 0.000000 15 15 15
204.000000 -53.000000 0.000000 14 14 14
205.000000 -53.000000 74.000000 14 14 14
206.000000 -53.000000 75.599998 26 26 26
207.000000 -53.000000 76.400002 63 63 63
208.000000 -53.000000 77.599998 77 77 77
209.000000 -53.000000 81.200005 77 77 77
210.000000 -53.000000 82.000000 77 77 77
211.000000 -53.000000 84.400002 77 77 77
212.000000 -53.000000 89.599998 77 77 77
213.000000 -53.000000 0.000000 76 76 76
214.000000 -53.000000 10.800000 76 76 76
215.000000 -53.000000 10.800000 76 76 76
216.000000 -53.000000 10.800000 76 76 76
217.000000 -53.000000 5.200000 77 77 77
218.000000 -53.000000 0.000000 76 76 76
219.000000 -53.000000 5.200000 74 74 74
220.000000 -53.000000 6.400000 68 68 68
221.000000 -53.000000 10.400001 57 57 57
222.000000 -53.000000 10.400001 56 56 56
223.000000 -53.000000 10.400001 54 54 54
224.000000 -53.000000 10.400001 40 40 40
225.000000 -53.000000 10.400001 28 28 28
226.000000 -53.000000 11.200000 19 19 19
227.000000 -53.000000 10.800000 11 11 11
228.000000 -53.000000 10.800000 10 10 10
229.000000 -53.000000 10.800000 10 10 10
230.000000 -53.000000 12.800000 10 10 10
231.000000 -53.000000 14.800000 11 11 11
232.000000 -53.000000 14.800000 12 12 12
235.000000 -53.000000 32.000000 11 11 11
236.000000 -53.000000 37.600002 12 12 12
237.000000 -53.000000 32.000000 14 14 14
238.000000 -53.000000 14.000000 28 28 28
239.000000 -53.000000 14.000000 49 49 49
240.000000 -53.000000 13.200000 47 47 47
241.000000 -53.000000 13.200000 32 32 32
242.000000 -53.000000 12.400001 31 31 31
243.000000 -53.000000 13.200000 38 38 38
244.000000 -53.000000 17.200001 45 45 45
245.000000 -53.000000 18.000000 52 52 52
246.000000 -53.000000 18.800001 54 54 54
247.000000 -53.000000 17.600000 54 54 54
248.000000 -53.000000 16.800001 54 54 54
249.000000 -53.000000 16.400000 54 54 54
250.000000 -53.000000 16.800001 54 54 54
251.000000 -53.000000 18.000000 55 55 55
252.000000 -53.000000 18.000000 56 56 56
16.000000 -54.000000 83.200005 52 52 52
17.000000 -54.000000 86.000000 52 52 52
18.000000 -54.000000 84.400002 51 51 51
19.000000 -54.000000 86.000000 51 51 51
20.000000 -54.000000 88.000000 50 50 50
21.000000 -54.000000 87.599998 50 50 50
22.000000 -54.000000 23.600000 50 50 50
23.000000 -54.000000 23.600000 50 50 50
24.000000 -54.000000 24.800001 50 50 50
25.000000 -54.000000 31.200001 50 50 50
26.000000 -54.000000 71.200005 50 50 50
27.000000 -54.000000 73.599998 50 50 50
28.000000 -54.000000 76.800003 50 50 50
29.000000 -54.000000 77.599998 51 51 51
30.000000 -54.000000 78.800003 52 52 52
31.000000 -54.000000 78.800003 51 51 51
32.000000 -54.000000 53.600002 51 51 51
33.000000 -54.000000 53.600002 51 51 51
34.000000 -54.000000 54.799999 51 51 51
35.000000 -54.000000 60.400002 51 51 51
36.000000 -54.000000 63.200001 51 51 51
37.000000 -54.000000 64.000000 51 51 51
40.000000 -54.000000 86.000000 51 51 51
41.000000 -54.000000 88.800003 51 51 51
42.000000 -54.000000 96.000000 51 51 51
43.000000 -54.000000 96.000000 51 51 51
44.000000 -54.000000 90.000000 50 50 50
45.000000 -54.000000 73.200005 51 51 51
46.000000 -54.000000 72.800003 51 51 51
47.000000 -54.000000 72.800003 52 52 52
48.000000 -54.000000 72.800003 54 54 54
49.000000 -54.000000 73.200005 53 53 53
50.000000 -54.000000 73.200005 53 53 53
51.000000 -54.000000 72.800003 52 52 52
52.000000 -54.000000 71.200005 47 47 47
53.000000 -54.000000 71.200005 46 46 46
54.000000 -54.000000 69.599998 48 48 48
55.000000 -54.000000 68.000000 49 49 49
56.000000 -54.000000 60.000000 50 50 50
57.000000 -54.000000 59.200001 50 50 50
58.000000 -54.000000 60.000000 51 51 51
59.000000 -54.000000 72.000000 52 52 52
60.000000 -54.000000 72.000000 52 52 52
61.000000 -54.000000 72.000000 53 53 53
62.000000 -54.000000 71.200005 56 56 56
63.000000 -54.000000 70.000000 60 60 60
64.000000 -54.000000 69.599998 58 58 58
65.000000 -54.000000 69.599998 50 50 50
66.000000 -54.000000 70.400002 47 47 47
67.000000 -54.000000 70.400002 46 46 46
68.000000 -54.000000 69.599998 46 46 46
69.000000 -54.000000 69.200005 45 45 45
70.000000 -54.000000 70.400002 44 44 44
71.000000 -54.000000 70.000000 43 43 43
72.000000 -54.000000 66.000000 39 39 39
73.000000 -54.000000 65.599998 35 35 35
74.000000 -54.000000 64.000000 41 41 41
75.000000 -54.000000 38.400002 46 46 46
76.000000 -54.000000 40.799999 48 48 48
77.000000 -54.000000 45.600002 51 51 51
78.000000 -54.000000 48.000000 53 53 53
79.000000 -54.000000 46.400002 54 54 54
80.000000 -54.000000 12.800000 55 55 55
81.000000 -54.000000 12.800000 56 56 56
82.000000 -54.000000 61.600002 57 57 57
83.000000 -54.000000 62.799999 57 57 57
84.000000 -54.000000 62.799999 52 52 52
85.000000 -54.000000 60.799999 57 57 57
86.000000 -54.000000 60.799999 63 63 63
87.000000 -54.000000 60.799999 64 64 64
88.000000 -54.000000 60.400002 66 66 66
89.000000 -54.000000 52.400002 66 66 66
90.000000 -54.000000 52.400002 71 71 71
91.000000 -54.000000 54.799999 97 97 97
92.000000 -54.000000 55.200001 110 110 110
93.000000 -54.000000 53.600002 110 110 110
94.000000 -54.000000 53.200001 109 109 109
95.000000 -54.000000 52.400002 104 104 104
96.000000 -54.000000 52.000000 80 80 80
97.000000 -54.000000 51.600002 80 80 80
98.000000 -54.000000 52.000000 101 101 101
99.000000 -54.000000 50.799999 95 95 95
100.000000 -54.000000 51.200001 71 71 71
101.000000 -54.000000 50.799999 76 76 76
102.000000 -54.000000 49.600002 88 88 88
103.000000 -54.000000 48.400002 100 100 100
104.000000 -54.000000 48.799999 108 108 108
105.000000 -54.000000 48.400002 109 109 109
106.000000 -54.000000 48.400002 109 109 109
107.000000 -54.000000 46.799999 110 110 110
108.000000 -54.000000 46.799999 106 106 106
109.000000 -54.000000 25.200001 74 74 74
110.000000 -54.000000 25.200001 76 76 76
111.000000 -54.000000 25.200001 88 88 88
112.000000 -54.000000 12.800000 84 84 84
113.000000 -54.000000 12.800000 85 85 85
114.000000 -54.000000 14.400001 86 86 86
115.000000 -54.000000 16.400000 87 87 87
116.000000 -54.000000 20.000000 88 88 88
117.000000 -54.000000 11.600000 88 88 88
120.000000 -54.000000 40.400002 92 92 92
121.000000 -54.000000 40.400002 87 87 87
122.000000 -54.000000 40.000000 82 82 82
123.000000 -54.000000 38.000000 85 85 85
124.000000 -54.000000 38.400002 89 89 89
125.000000 -54.000000 38.400002 88 88 88
126.000000 -54.000000 39.200001 83 83 83
127.000000 -54.000000 39.600002 84 84 84
128.000000 -54.000000 40.000000 83 83 83
129.000000 -54.000000 37.200001 83 83 83
130.000000 -54.000000 32.799999 86 86 86
131.000000 -54.000000 32.400002 99 99 99
132.000000 -54.000000 32.000000 100 100 100
133.000000 -54.000000 32.000000 74 74 74
134.000000 -54.000000 32.000000 56 56 56
135.000000 -54.000000 32.000000 65 65 65
136.000000 -54.000000 30.800001 67 67 67
137.000000 -54.000000 29.200001 68 68 68
138.000000 -54.000000 30.800001 79 79 79
139.000000 -54.000000 31.200001 93 93 93
140.000000 -54.000000 31.600000 95 95 95
141.000000 -54.000000 31.600000 94 94 94
142.000000 -54.000000 31.200001 93 93 93
143.000000 -54.000000 29.200001 75 75 75
144.000000 -54.000000 28.800001 34 34 34
145.000000 -54.000000 27.200001 22 22 22
146.000000 -54.000000 26.000000 22 22 22
147.000000 -54.000000 25.600000 22 22 22
148.000000 -54.000000 25.600000 32 32 32
149.000000 -54.000000 25.200001 72 72 72
150.000000 -54.000000 25.200001 91 91 91
151.000000 -54.000000 24.400000 92 92 92
152.000000 -54.000000 24.000000 91 91 91
153.000000 -54.000000 23.200001 87 87 87
154.000000 -54.000000 21.600000 60 60 60
155.000000 -54.000000 19.200001 36 36 36
156.000000 -54.000000 19.200001 43 43 43
157.000000 -54.000000 19.200001 57 57 57
158.000000 -54.000000 19.200001 71 71 71
159.000000 -54.000000 18.800001 76 76 76
160.000000 -54.000000 18.800001 49 49 49
161.000000 -54.000000 17.600000 22 22 22
162.000000 -54.000000 18.000000 20 20 20
163.000000 -54.000000 18.800001 19 19 19
164.000000 -54.000000 19.200001 19 19 19
165.000000 -54.000000 19.200001 21 21 21
166.000000 -54.000000 19.200001 46 46 46
167.000000 -54.000000 18.800001 83 83 83
168.000000 -54.000000 18.800001 89 89 89
169.000000 -54.000000 18.400000 90 90 90
170.000000 -54.000000 18.400000 89 89 89
171.000000 -54.000000 18.400000 89 89 89
172.000000 -54.000000 18.800001 83 83 83
173.000000 -54.000000 19.200001 48 48 48
174.000000 -54.000000 19.200001 20 20 20
175.000000 -54.000000 18.800001 17 17 17
176.000000 -54.000000 18.400000 17 17 17
177.000000 -54.000000 17.600000 17 17 17
178.000000 -54.000000 17.600000 17 17 17
179.000000 -54.000000 17.600000 18 18 18
180.000000 -54.000000 17.600000 37 37 37
181.000000 -54.000000 17.600000 76 76 76
182.000000 -54.000000 18.000000 85 85 85
183.000000 -54.000000 17.600000 85 85 85
184.000000 -54.000000 17.200001 85 85 85
185.000000 -54.000000 14.000000 84 84 84
186.000000 -54.000000 14.000000 84 84 84
187.000000 -54.000000 15.200000 82 82 82
188.000000 -54.000000 15.200000 61 61 61
189.000000 -54.000000 14.400001 24 24 24
190.000000 -54.000000 4.400000 17 17 17
200.000000 -54.000000 76.800003 15 15 15
201.000000 -54.000000 81.599998 14 14 14
202.000000 -54.000000 85.200005 14 14 14
203.000000 -54.000000 89.599998 14 14 14
204.000000 -54.000000 78.400002 14 14 14
205.000000 -54.000000 74.400002 14 14 14
206.000000 -54.000000 74.400002 26 26 26
207.000000 -54.000000 74.400002 63 63 63
208.000000 -54.000000 76.800003 77 77 77
209.000000 -54.000000 77.599998 77 77 77
210.000000 -54.000000 82.000000 77 77 77
211.000000 -54.000000 84.400002 77 77 77
212.000000 -54.000000 0.000000 77 77 77
213.000000 -54.000000 0.000000 77 77 77
214.000000 -54.000000 0.000000 77 77 77
215.000000 -54.000000 5.600000 77 77 77
216.000000 -54.000000 10.800000 77 77 77
217.000000 -54.000000 5.200000 78 78 78
218.000000 -54.000000 5.200000 78 78 78
219.000000 -54.000000 6.400000 77 77 77
220.000000 -54.000000 10.400001 68 68 68
221.000000 -54.000000 12.800000 57 57 57
222.000000 -54.000000 10.400001 57 57 57
223.000000 -54.000000 10.400001 54 54 54
224.000000 -54.000000 10.400001 39 39 39
225.000000 -54.000000 11.200000 27 27 27
226.000000 -54.000000 11.600000 19 19 19
227.000000 -54.000000 12.800000 11 11 11
228.000000 -54.000000 12.800000 9 9 9
229.000000 -54.000000 12.800000 10 10 10
230.000000 -54.000000 13.600000 11 11 11
231.000000 -54.000000 17.200001 12 12 12
232.000000 -54.000000 17.200001 12 12 12
234.000000 -54.000000 0.000000 10 10 10
235.000000 -54.000000 30.000000 12 12 12
236.000000 -54.000000 30.000000 13 13 13
237.000000 -54.000000 14.000000 17 17 17
238.000000 -54.000000 12.800000 32 32 32
239.000000 -54.000000 13.200000 50 50 50
240.000000 -54.000000 12.800000 47 47 47
241.000000 -54.000000 13.200000 32 32 32
242.000000 -54.000000 12.400001 31 31 31
243.000000 -54.000000 13.200000 38 38 38
244.000000 -54.000000 16.400000 45 45 45
245.000000 -54.000000 17.200001 51 51 51
246.000000 -54.000000 17.200001 53 53 53
247.000000 -54.000000 16.800001 53 53 53
248.000000 -54.000000 16.400000 53 53 53
249.000000 -54.000000 16.400000 53 53 53
250.000000 -54.000000 18.000000 53 53 53
251.000000 -54.000000 18.000000 53 53 53
252.000000 -54.000000 0.000000 54 54 54
253.000000 -54.000000 0.000000 54 54 54
16.000000 -55.000000 83.200005 52 52 52
17.000000 -55.000000 87.599998 52 52 52
18.000000 -55.000000 86.000000 52 52 52
19.000000 -55.000000 86.000000 51 51 51
20.000000 -55.000000 88.000000 50 50 50
21.000000 -55.000000 87.599998 50 50 50
22.000000 -55.000000 51.600002 50 50 50
23.000000 -55.000000 31.200001 50 50 50
24.000000 -55.000000 31.200001 50 50 50
25.000000 -55.000000 36.400002 50 50 50
26.000000 -55.000000 69.599998 50 50 50
27.000000 -55.000000 73.599998 50 50 50
28.000000 -55.000000 77.200005 50 50 50
29.000000 -55.000000 77.599998 51 51 51
30.000000 -55.000000 80.000000 52 52 52
31.000000 -55.000000 80.000000 52 52 52
32.000000 -55.000000 53.600002 52 52 52
33.000000 -55.000000 54.799999 51 51 51
34.000000 -55.000000 63.600002 51 51 51
35.000000 -55.000000 64.000000 51 51 51
36.000000 -55.000000 64.000000 51 51 51
40.000000 -55.000000 88.800003 51 51 51
41.000000 -55.000000 96.000000 51 51 51
42.000000 -55.000000 96.000000 51 51 51
43.000000 -55.000000 96.000000 51 51 51
44.000000 -55.000000 96.000000 51 51 51
45.000000 -55.000000 90.000000 50 50 50
46.000000 -55.000000 72.800003 51 51 51
47.000000 -55.000000 73.200005 53 53 53
48.000000 -55.000000 73.200005 54 54 54
49.000000 -55.000000 74.400002 53 53 53
50.000000 -55.000000 75.200005 53 53 53
51.000000 -55.000000 74.400002 52 52 52
52.000000 -55.000000 71.200005 47 47 47
53.000000 -55.000000 71.200005 46 46 46
54.000000 -55.000000 69.599998 48 48 48
55.000000 -55.000000 68.000000 50 50 50
56.000000 -55.000000 60.000000 50 50 50
57.000000 -55.000000 59.200001 50 50 50
58.000000 -55.000000 61.600002 51 51 51
59.000000 -55.000000 71.599998 52 52 52
60.000000 -55.000000 72.000000 52 52 52
61.000000 -55.000000 72.000000 53 53 53
62.000000 -55.000000 71.200005 57 57 57
63.000000 -55.000000 70.000000 61 61 61
64.000000 -55.000000 69.599998 59 59 59
65.000000 -55.000000 70.000000 50 50 50
66.000000 -55.000000 70.400002 47 47 47
67.000000 -55.000000 70.400002 46 46 46
68.000000 -55.000000 70.400002 46 46 46
69.000000 -55.000000 70.000000 46 46 46
70.000000 -55.000000 70.800003 45 45 45
71.000000 -55.000000 70.400002 44 44 44
72.000000 -55.000000 66.800003 40 40 40
73.000000 -55.000000 66.000000 35 35 35
74.000000 -55.000000 34.799999 41 41 41
75.000000 -55.000000 33.600002 46 46 46
76.000000 -55.000000 34.799999 49 49 49
77.000000 -55.000000 40.799999 51 51 51
78.000000 -55.000000 45.200001 53 53 53
79.000000 -55.000000 45.200001 55 55 55
80.000000 -55.000000 12.800000 56 56 56
81.000000 -55.000000 13.200000 56 56 56
82.000000 -55.000000 60.000000 57 57 57
83.000000 -55.000000 62.799999 57 57 57
84.000000 -55.000000 63.200001 51 51 51
85.000000 -55.000000 62.000000 56 56 56
86.000000 -55.000000 62.000000 62 62 62
87.000000 -55.000000 62.400002 64 64 64
88.000000 -55.000000 62.400002 66 66 66
89.000000 -55.000000 52.799999 66 66 66
90.000000 -55.000000 52.799999 71 71 71
91.000000 -55.000000 55.600002 96 96 96
92.000000 -55.000000 55.600002 110 110 110
93.000000 -55.000000 55.200001 111 111 111
94.000000 -55.000000 53.600002 110 110 110
95.000000 -55.000000 53.200001 104 104 104
96.000000 -55.000000 52.400002 80 80 80
97.000000 -55.000000 51.600002 80 80 80
98.000000 -55.000000 52.000000 101 101 101
99.000000 -55.000000 50.799999 97 97 97
100.000000 -55.000000 51.200001 72 72 72
101.000000 -55.000000 50.799999 75 75 75
102.000000 -55.000000 49.600002 88 88 88
103.000000 -55.000000 48.799999 100 100 100
104.000000 -55.000000 49.600002 108 108 108
105.000000 -55.000000 48.799999 109 109 109
106.000000 -55.000000 44.799999 110 110 110
107.000000 -55.000000 39.600002 109 109 109
108.000000 -55.000000 23.600000 104 104 104
109.000000 -55.000000 24.400000 75 75 75
110.000000 -55.000000 25.200001 86 86 86
111.000000 -55.000000 25.200001 95 95 95
112.000000 -55.000000 24.400000 86 86 86
113.000000 -55.000000 13.600000 86 86 86
114.000000 -55.000000 16.400000 87 87 87
115.000000 -55.000000 20.000000 88 88 88
116.000000 -55.000000 27.600000 88 88 88
117.000000 -55.000000 27.600000 88 88 88
118.000000 -55.000000 11.600000 87 87 87
124.000000 -55.000000 38.400002 89 89 89
125.000000 -55.000000 39.200001 90 90 90
126.000000 -55.000000 39.600002 84 84 84
127.000000 -55.000000 40.000000 84 84 84
128.000000 -55.000000 71.599998 84 84 84
129.000000 -55.000000 71.599998 84 84 84
130.000000 -55.000000 32.400002 88 88 88
131.000000 -55.000000 32.000000 99 99 99
132.000000 -55.000000 32.000000 98 98 98
133.000000 -55.000000 32.000000 72 72 72
134.000000 -55.000000 32.000000 56 56 56
135.000000 -55.000000 32.000000 65 65 65
136.000000 -55.000000 31.200001 67 67 67
137.000000 -55.000000 30.000000 68 68 68
138.000000 -55.000000 30.800001 79 79 79
139.000000 -55.000000 30.800001 93 93 93
140.000000 -55.000000 31.200001 94 94 94
141.000000 -55.000000 31.200001 94 94 94
142.000000 -55.000000 31.200001 93 93 93
143.000000 -55.000000 29.200001 74 74 74
144.000000 -55.000000 28.800001 34 34 34
145.000000 -55.000000 27.200001 22 22 22
146.000000 -55.000000 26.000000 22 22 22
147.000000 -55.000000 25.600000 22 22 22
148.000000 -55.000000 25.600000 32 32 32
149.000000 -55.000000 25.200001 72 72 72
150.000000 -55.000000 24.800001 89 89 89
151.000000 -55.000000 24.000000 87 87 87
152.000000 -55.000000 23.600000 79 79 79
153.000000 -55.000000 22.800001 67 67 67
154.000000 -55.000000 20.800001 62 62 62
155.000000 -55.000000 19.200001 72 72 72
156.000000 -55.000000 19.200001 82 82 82
157.000000 -55.000000 20.000000 88 88 88
158.000000 -55.000000 20.000000 91 91 91
159.000000 -55.000000 20.000000 85 85 85
160.000000 -55.000000 20.400000 48 48 48
161.000000 -55.000000 20.800001 21 21 21
162.000000 -55.000000 20.000000 19 19 19
163.000000 -55.000000 18.800001 19 19 19
164.000000 -55.000000 19.200001 19 19 19
165.000000 -55.000000 19.200001 21 21 21
166.000000 -55.000000 20.000000 47 47 47
167.000000 -55.000000 20.000000 84 84 84
168.000000 -55.000000 20.000000 90 90 90
169.000000 -55.000000 18.800001 90 90 90
170.000000 -55.000000 18.800001 89 89 89
171.000000 -55.000000 18.800001 89 89 89
172.000000 -55.000000 19.200001 82 82 82
173.000000 -55.000000 19.200001 47 47 47
174.000000 -55.000000 19.200001 20 20 20
175.000000 -55.000000 18.400000 17 17 17
176.000000 -55.000000 18.000000 17 17 17
177.000000 -55.000000 17.600000 17 17 17
178.000000 -55.000000 17.600000 16 16 16
179.000000 -55.000000 16.800001 18 18 18
180.000000 -55.000000 16.800001 39 39 39
181.000000 -55.000000 16.800001 77 77 77
182.000000 -55.000000 17.200001 85 85 85
183.000000 -55.000000 16.800001 85 85 85
184.000000 -55.000000 6.800000 84 84 84
185.000000 -55.000000 6.800000 84 84 84
186.000000 -55.000000 11.200000 83 83 83
187.000000 -55.000000 13.600000 80 80 80
188.000000 -55.000000 13.600000 59 59 59
189.000000 -55.000000 4.400000 31 31 31
190.000000 -55.000000 0.000000 32 32 32
198.000000 -55.000000 72.000000 17 17 17
199.000000 -55.000000 76.800003 14 14 14
200.000000 -55.000000 80.800003 14 14 14
201.000000 -55.000000 81.599998 14 14 14
202.000000 -55.000000 88.400002 14 14 14
203.000000 -55.000000 91.599998 14 14 14
204.000000 -55.000000 91.599998 14 14 14
205.000000 -55.000000 10.000000 14 14 14
206.000000 -55.000000 9.200000 28 28 28
207.000000 -55.000000 8.000000 64 64 64
208.000000 -55.000000 7.200000 77 77 77
209.000000 -55.000000 0.000000 77 77 77
210.000000 -55.000000 0.000000 77 77 77
211.000000 -55.000000 0.000000 77 77 77
212.000000 -55.000000 0.000000 77 77 77
213.000000 -55.000000 0.000000 78 78 78
214.000000 -55.000000 10.800000 78 78 78
215.000000 -55.000000 14.400001 78 78 78
216.000000 -55.000000 14.800000 78 78 78
217.000000 -55.000000 15.600000 78 78 78
218.000000 -55.000000 15.600000 78 78 78
219.000000 -55.000000 15.200000 77 77 77
220.000000 -55.000000 15.200000 68 68 68
221.000000 -55.000000 12.800000 56 56 56
222.000000 -55.000000 12.800000 56 56 56
223.000000 -55.000000 10.000000 53 53 53
224.000000 -55.000000 10.000000 38 38 38
225.000000 -55.000000 11.200000 27 27 27
226.000000 -55.000000 12.800000 19 19 19
