ply
        format ascii 1.0
        element vertex 51992
        property float x
        property float y
        property float z
        property uchar red
        property uchar green
        property uchar blue
        end_header
79.000000 -210.000000 123.200005 94 88 78
80.000000 -210.000000 123.200005 94 88 78
81.000000 -210.000000 123.200005 93 89 78
82.000000 -210.000000 124.400002 92 89 79
83.000000 -210.000000 125.599998 93 88 79
84.000000 -210.000000 126.000000 95 89 79
85.000000 -210.000000 125.599998 96 90 80
86.000000 -210.000000 124.400002 98 91 82
87.000000 -210.000000 124.400002 100 93 83
88.000000 -210.000000 124.800003 102 94 84
89.000000 -210.000000 124.800003 103 95 85
90.000000 -210.000000 125.599998 103 94 84
91.000000 -210.000000 125.599998 102 96 83
92.000000 -210.000000 125.599998 101 97 83
93.000000 -210.000000 125.599998 102 99 85
94.000000 -210.000000 126.400002 104 101 87
95.000000 -210.000000 126.800003 107 104 88
96.000000 -210.000000 126.000000 109 106 91
97.000000 -210.000000 124.000000 114 111 96
98.000000 -210.000000 124.000000 122 118 103
102.000000 -210.000000 -6.400000 100 95 83
103.000000 -210.000000 -6.400000 99 95 82
104.000000 -210.000000 -6.400000 99 96 82
105.000000 -210.000000 -6.400000 98 95 82
106.000000 -210.000000 -6.400000 98 95 82
107.000000 -210.000000 -6.400000 98 94 81
108.000000 -210.000000 -6.400000 97 93 81
109.000000 -210.000000 -6.400000 96 93 80
110.000000 -210.000000 -6.400000 94 92 79
111.000000 -210.000000 -6.400000 95 92 78
112.000000 -210.000000 -2.400000 95 91 78
113.000000 -210.000000 0.000000 95 91 78
114.000000 -210.000000 2.800000 94 91 78
115.000000 -210.000000 3.200000 93 89 78
116.000000 -210.000000 7.600000 93 89 79
117.000000 -210.000000 128.400009 97 93 81
118.000000 -210.000000 128.400009 102 98 85
119.000000 -210.000000 128.400009 107 103 89
120.000000 -210.000000 128.400009 113 108 93
121.000000 -210.000000 128.000000 102 98 85
122.000000 -210.000000 128.000000 92 89 78
125.000000 -210.000000 -6.400000 79 76 67
126.000000 -210.000000 -6.400000 73 70 62
127.000000 -210.000000 -6.400000 83 76 68
128.000000 -210.000000 -6.400000 91 82 73
129.000000 -210.000000 -6.400000 96 85 75
130.000000 -210.000000 -6.400000 97 86 77
131.000000 -210.000000 -6.400000 96 85 77
132.000000 -210.000000 -6.400000 94 83 76
133.000000 -210.000000 -6.400000 84 76 69
134.000000 -210.000000 -6.400000 80 73 66
135.000000 -210.000000 -6.400000 97 86 79
136.000000 -210.000000 -2.800000 106 94 85
137.000000 -210.000000 128.000000 107 97 86
138.000000 -210.000000 130.400009 106 101 87
139.000000 -210.000000 132.000000 103 100 85
140.000000 -210.000000 132.800003 102 100 85
141.000000 -210.000000 133.600006 105 101 87
142.000000 -210.000000 134.000000 108 104 89
143.000000 -210.000000 133.199997 109 106 91
144.000000 -210.000000 133.199997 113 109 94
145.000000 -210.000000 133.199997 119 113 98
146.000000 -210.000000 133.199997 113 103 91
147.000000 -210.000000 4.400000 109 96 86
148.000000 -210.000000 4.000000 109 96 85
149.000000 -210.000000 1.200000 110 96 85
150.000000 -210.000000 -6.400000 110 96 87
151.000000 -210.000000 -6.400000 110 98 87
152.000000 -210.000000 -6.400000 109 97 87
153.000000 -210.000000 -6.400000 106 94 84
154.000000 -210.000000 -6.400000 101 90 81
155.000000 -210.000000 -6.400000 90 81 73
156.000000 -210.000000 -6.400000 77 70 64
157.000000 -210.000000 -6.400000 91 80 73
158.000000 -210.000000 -6.400000 104 92 83
159.000000 -210.000000 -6.400000 107 95 85
160.000000 -210.000000 -6.400000 108 95 86
161.000000 -210.000000 -6.400000 109 96 87
184.000000 -210.000000 120.000000 99 95 84
185.000000 -210.000000 120.400002 100 95 84
186.000000 -210.000000 121.599998 105 99 87
187.000000 -210.000000 124.400002 107 102 88
188.000000 -210.000000 126.800003 103 99 85
189.000000 -210.000000 128.000000 102 98 84
190.000000 -210.000000 128.800003 104 100 85
191.000000 -210.000000 130.400009 105 102 87
192.000000 -210.000000 130.400009 106 103 88
193.000000 -210.000000 128.400009 108 104 90
194.000000 -210.000000 128.000000 111 107 93
195.000000 -210.000000 127.599998 110 107 93
196.000000 -210.000000 127.599998 103 98 87
197.000000 -210.000000 127.200005 102 98 86
198.000000 -210.000000 127.200005 102 99 86
199.000000 -210.000000 127.599998 102 98 85
200.000000 -210.000000 127.599998 102 96 84
201.000000 -210.000000 127.599998 102 96 85
202.000000 -210.000000 128.000000 102 97 86
203.000000 -210.000000 128.000000 102 97 86
204.000000 -210.000000 128.000000 101 97 84
205.000000 -210.000000 128.000000 100 95 83
206.000000 -210.000000 128.000000 99 94 83
207.000000 -210.000000 128.000000 99 93 82
208.000000 -210.000000 128.000000 98 93 81
209.000000 -210.000000 127.599998 99 94 82
210.000000 -210.000000 127.200005 99 94 83
211.000000 -210.000000 127.200005 100 97 85
212.000000 -210.000000 128.000000 102 98 85
213.000000 -210.000000 128.000000 101 97 83
214.000000 -210.000000 127.599998 104 100 86
215.000000 -210.000000 126.800003 106 102 89
216.000000 -210.000000 126.000000 103 99 87
217.000000 -210.000000 123.599998 103 97 86
218.000000 -210.000000 123.599998 103 97 86
219.000000 -210.000000 124.400002 103 98 85
220.000000 -210.000000 124.400002 103 98 86
221.000000 -210.000000 124.400002 102 98 86
226.000000 -210.000000 115.200005 100 96 85
227.000000 -210.000000 116.000000 100 96 85
228.000000 -210.000000 116.800003 100 95 84
229.000000 -210.000000 120.000000 99 94 83
230.000000 -210.000000 121.599998 99 95 84
231.000000 -210.000000 121.200005 100 95 84
232.000000 -210.000000 120.400002 99 94 83
233.000000 -210.000000 118.400002 99 94 83
234.000000 -210.000000 118.000000 100 95 83
235.000000 -210.000000 117.599998 106 100 87
236.000000 -210.000000 117.599998 105 100 87
237.000000 -210.000000 117.599998 102 97 84
238.000000 -210.000000 117.599998 102 98 84
239.000000 -210.000000 118.000000 101 98 85
240.000000 -210.000000 116.800003 103 99 85
241.000000 -210.000000 114.400002 103 98 85
242.000000 -210.000000 113.599998 104 98 86
243.000000 -210.000000 112.800003 102 97 86
244.000000 -210.000000 112.000000 98 93 83
245.000000 -210.000000 111.599998 97 92 82
246.000000 -210.000000 110.400002 96 93 82
247.000000 -210.000000 110.400002 97 93 82
248.000000 -210.000000 110.000000 97 92 82
249.000000 -210.000000 110.400002 96 92 82
250.000000 -210.000000 110.800003 96 92 81
251.000000 -210.000000 110.800003 96 92 81
252.000000 -210.000000 110.400002 95 91 80
253.000000 -210.000000 110.400002 95 91 80
254.000000 -210.000000 110.000000 95 91 80
255.000000 -210.000000 109.599998 95 90 81
256.000000 -210.000000 109.599998 94 91 81
257.000000 -210.000000 109.200005 95 90 80
258.000000 -210.000000 108.800003 97 92 81
259.000000 -210.000000 108.400002 102 96 84
260.000000 -210.000000 108.000000 101 96 83
261.000000 -210.000000 108.000000 99 94 82
262.000000 -210.000000 108.000000 96 92 81
263.000000 -210.000000 107.599998 93 90 80
264.000000 -210.000000 108.000000 93 89 79
265.000000 -210.000000 107.599998 94 89 78
266.000000 -210.000000 107.200005 92 85 76
274.000000 -210.000000 69.599998 57 54 50
275.000000 -210.000000 70.000000 98 95 83
276.000000 -210.000000 70.000000 130 126 110
277.000000 -210.000000 70.400002 134 130 116
278.000000 -210.000000 70.400002 116 112 102
279.000000 -210.000000 70.800003 102 99 89
280.000000 -210.000000 70.800003 104 99 88
281.000000 -210.000000 70.800003 103 98 87
282.000000 -210.000000 70.800003 97 93 82
285.000000 -210.000000 83.200005 93 88 78
286.000000 -210.000000 89.200005 92 86 77
287.000000 -210.000000 89.200005 90 84 76
288.000000 -210.000000 88.800003 85 81 74
289.000000 -210.000000 86.400002 76 74 69
290.000000 -210.000000 86.000000 82 79 72
291.000000 -210.000000 86.000000 89 84 77
292.000000 -210.000000 86.000000 88 83 75
296.000000 -210.000000 243.199997 86 80 73
297.000000 -210.000000 243.199997 85 79 72
298.000000 -210.000000 243.199997 86 79 73
299.000000 -210.000000 243.600006 85 79 72
300.000000 -210.000000 243.600006 83 78 71
301.000000 -210.000000 243.600006 81 76 69
307.000000 -210.000000 208.400009 78 73 67
308.000000 -210.000000 210.400009 78 73 68
309.000000 -210.000000 212.400009 77 73 67
310.000000 -210.000000 212.400009 80 76 69
311.000000 -210.000000 74.800003 92 90 79
312.000000 -210.000000 74.400002 97 96 86
316.000000 -210.000000 6.400000 94 92 83
317.000000 -210.000000 6.400000 90 88 79
318.000000 -210.000000 7.600000 86 84 76
319.000000 -210.000000 7.600000 84 82 73
320.000000 -210.000000 6.400000 74 72 64
321.000000 -210.000000 5.200000 27 26 23
322.000000 -210.000000 3.200000 1 1 1
64.000000 -211.000000 97.599998 101 98 86
65.000000 -211.000000 112.800003 100 97 85
66.000000 -211.000000 115.200005 100 97 84
67.000000 -211.000000 115.599998 100 96 84
68.000000 -211.000000 116.000000 100 96 85
69.000000 -211.000000 118.000000 100 96 85
70.000000 -211.000000 118.400002 100 96 84
71.000000 -211.000000 119.200005 102 99 85
72.000000 -211.000000 119.200005 109 106 92
73.000000 -211.000000 120.000000 110 107 93
74.000000 -211.000000 120.000000 100 97 85
75.000000 -211.000000 120.400002 98 95 83
76.000000 -211.000000 120.000000 98 95 83
78.000000 -211.000000 121.599998 99 95 83
79.000000 -211.000000 122.400002 99 95 83
80.000000 -211.000000 122.800003 99 94 82
81.000000 -211.000000 123.200005 97 94 82
82.000000 -211.000000 124.800003 95 93 81
83.000000 -211.000000 126.000000 94 92 80
84.000000 -211.000000 126.800003 94 92 79
85.000000 -211.000000 126.800003 93 91 79
86.000000 -211.000000 126.400002 93 90 79
87.000000 -211.000000 126.400002 94 90 79
88.000000 -211.000000 126.400002 95 90 79
89.000000 -211.000000 126.800003 96 90 80
90.000000 -211.000000 126.400002 98 92 82
91.000000 -211.000000 126.400002 101 96 84
92.000000 -211.000000 126.400002 101 97 84
93.000000 -211.000000 126.400002 102 99 84
94.000000 -211.000000 126.800003 105 102 87
95.000000 -211.000000 127.200005 107 103 89
96.000000 -211.000000 127.200005 110 105 91
97.000000 -211.000000 126.800003 114 110 96
98.000000 -211.000000 126.800003 122 119 104
99.000000 -211.000000 126.800003 117 114 99
102.000000 -211.000000 -6.400000 108 104 91
103.000000 -211.000000 -6.400000 107 104 90
104.000000 -211.000000 -6.400000 107 104 90
105.000000 -211.000000 -6.400000 106 104 90
106.000000 -211.000000 -6.400000 107 104 90
107.000000 -211.000000 -6.400000 106 104 91
108.000000 -211.000000 -6.400000 106 103 90
109.000000 -211.000000 -6.400000 106 104 90
110.000000 -211.000000 -6.400000 106 103 90
111.000000 -211.000000 -6.400000 105 103 89
112.000000 -211.000000 -6.400000 106 104 89
113.000000 -211.000000 0.800000 106 104 89
114.000000 -211.000000 6.400000 106 104 89
115.000000 -211.000000 7.600000 106 104 90
116.000000 -211.000000 127.200005 106 104 91
117.000000 -211.000000 128.400009 107 105 91
118.000000 -211.000000 128.800003 105 101 88
119.000000 -211.000000 128.400009 107 103 89
120.000000 -211.000000 128.400009 113 109 95
121.000000 -211.000000 128.400009 111 108 94
122.000000 -211.000000 128.000000 107 105 91
125.000000 -211.000000 -6.400000 98 96 83
126.000000 -211.000000 -6.400000 86 83 72
127.000000 -211.000000 -6.400000 83 79 70
128.000000 -211.000000 -6.400000 88 78 71
129.000000 -211.000000 -6.400000 93 82 73
130.000000 -211.000000 -6.400000 95 84 75
131.000000 -211.000000 -6.400000 94 84 76
132.000000 -211.000000 -6.400000 94 84 76
133.000000 -211.000000 -6.400000 96 85 77
134.000000 -211.000000 -6.400000 96 86 77
135.000000 -211.000000 -6.400000 103 91 83
136.000000 -211.000000 -6.400000 107 94 85
137.000000 -211.000000 -6.400000 108 97 86
138.000000 -211.000000 -6.400000 106 101 86
139.000000 -211.000000 -6.400000 103 99 85
140.000000 -211.000000 -6.400000 102 99 85
141.000000 -211.000000 -6.400000 105 101 87
142.000000 -211.000000 -0.800000 107 104 89
143.000000 -211.000000 1.200000 110 106 91
144.000000 -211.000000 2.800000 114 109 95
145.000000 -211.000000 4.000000 120 114 99
146.000000 -211.000000 4.000000 114 104 92
147.000000 -211.000000 4.000000 108 96 86
148.000000 -211.000000 4.000000 109 96 85
149.000000 -211.000000 1.200000 110 96 86
150.000000 -211.000000 -6.400000 111 97 86
151.000000 -211.000000 -6.400000 111 98 87
152.000000 -211.000000 -6.400000 110 96 86
153.000000 -211.000000 -6.400000 106 93 83
154.000000 -211.000000 -6.400000 101 90 81
155.000000 -211.000000 -6.400000 97 86 77
156.000000 -211.000000 -6.400000 91 81 72
157.000000 -211.000000 -6.400000 96 85 77
158.000000 -211.000000 -6.400000 103 91 82
159.000000 -211.000000 -6.400000 106 94 84
160.000000 -211.000000 -6.400000 108 96 85
161.000000 -211.000000 -6.400000 109 96 86
184.000000 -211.000000 119.599998 98 94 84
185.000000 -211.000000 120.000000 99 94 83
186.000000 -211.000000 121.599998 105 99 85
187.000000 -211.000000 124.000000 108 102 87
188.000000 -211.000000 126.800003 103 99 84
189.000000 -211.000000 128.000000 102 98 84
190.000000 -211.000000 128.400009 104 100 85
191.000000 -211.000000 129.199997 105 102 87
192.000000 -211.000000 129.199997 106 103 88
193.000000 -211.000000 128.000000 108 104 90
194.000000 -211.000000 128.000000 111 106 93
195.000000 -211.000000 127.599998 111 106 93
196.000000 -211.000000 127.599998 103 98 86
197.000000 -211.000000 127.200005 101 98 86
198.000000 -211.000000 126.800003 101 98 86
199.000000 -211.000000 126.800003 101 96 85
200.000000 -211.000000 126.800003 101 96 84
201.000000 -211.000000 127.200005 102 96 84
202.000000 -211.000000 127.599998 102 96 86
203.000000 -211.000000 127.599998 102 96 85
204.000000 -211.000000 127.200005 101 96 84
205.000000 -211.000000 127.200005 100 95 83
206.000000 -211.000000 126.800003 98 95 83
207.000000 -211.000000 126.800003 98 93 82
208.000000 -211.000000 126.800003 98 93 82
209.000000 -211.000000 126.400002 98 94 82
210.000000 -211.000000 124.800003 98 93 83
211.000000 -211.000000 124.000000 99 95 83
212.000000 -211.000000 124.800003 101 97 84
213.000000 -211.000000 124.800003 101 97 83
214.000000 -211.000000 126.000000 105 100 86
215.000000 -211.000000 126.000000 106 101 89
216.000000 -211.000000 124.400002 102 98 87
217.000000 -211.000000 123.599998 101 96 86
218.000000 -211.000000 123.599998 101 96 86
219.000000 -211.000000 123.599998 101 97 85
220.000000 -211.000000 124.400002 101 96 85
221.000000 -211.000000 122.800003 101 96 85
222.000000 -211.000000 116.800003 101 97 85
225.000000 -211.000000 115.200005 100 95 84
226.000000 -211.000000 115.200005 100 95 84
227.000000 -211.000000 116.400002 99 95 85
228.000000 -211.000000 117.200005 99 95 84
229.000000 -211.000000 118.000000 99 94 83
230.000000 -211.000000 120.000000 99 94 83
231.000000 -211.000000 118.000000 99 94 83
232.000000 -211.000000 118.400002 98 93 83
233.000000 -211.000000 118.000000 98 93 82
234.000000 -211.000000 117.200005 100 94 82
235.000000 -211.000000 117.200005 106 99 87
236.000000 -211.000000 116.800003 104 99 87
237.000000 -211.000000 116.800003 101 97 84
238.000000 -211.000000 116.800003 102 98 84
239.000000 -211.000000 116.400002 102 99 85
240.000000 -211.000000 115.599998 104 99 85
241.000000 -211.000000 113.599998 104 98 85
242.000000 -211.000000 113.200005 104 98 86
243.000000 -211.000000 112.800003 102 96 86
244.000000 -211.000000 112.400002 98 93 82
245.000000 -211.000000 111.599998 96 93 81
246.000000 -211.000000 111.200005 96 93 81
247.000000 -211.000000 111.200005 97 92 81
248.000000 -211.000000 110.400002 96 92 82
249.000000 -211.000000 111.200005 96 92 81
250.000000 -211.000000 111.200005 95 92 81
251.000000 -211.000000 111.200005 95 91 80
252.000000 -211.000000 110.400002 94 90 80
253.000000 -211.000000 110.400002 93 90 80
254.000000 -211.000000 110.400002 94 90 79
255.000000 -211.000000 109.599998 94 89 80
256.000000 -211.000000 109.200005 94 90 80
257.000000 -211.000000 109.200005 94 90 79
258.000000 -211.000000 108.800003 97 91 80
259.000000 -211.000000 108.400002 102 96 84
260.000000 -211.000000 108.000000 101 96 84
261.000000 -211.000000 108.000000 99 94 82
262.000000 -211.000000 108.000000 96 91 80
263.000000 -211.000000 108.400002 93 89 79
264.000000 -211.000000 108.800003 93 88 78
265.000000 -211.000000 108.800003 91 85 76
274.000000 -211.000000 69.599998 59 56 51
275.000000 -211.000000 69.599998 101 98 85
276.000000 -211.000000 70.000000 130 126 110
277.000000 -211.000000 70.400002 125 122 110
278.000000 -211.000000 70.400002 110 107 96
279.000000 -211.000000 70.800003 103 99 88
280.000000 -211.000000 70.800003 104 100 88
281.000000 -211.000000 70.800003 103 98 86
282.000000 -211.000000 71.200005 97 92 81
284.000000 -211.000000 72.800003 93 89 78
285.000000 -211.000000 84.400002 93 89 78
286.000000 -211.000000 89.599998 92 86 78
287.000000 -211.000000 89.599998 90 84 75
288.000000 -211.000000 88.800003 85 80 73
289.000000 -211.000000 88.400002 77 74 68
290.000000 -211.000000 87.599998 82 79 72
291.000000 -211.000000 87.599998 90 84 77
292.000000 -211.000000 88.400002 88 82 75
293.000000 -211.000000 87.200005 88 81 74
294.000000 -211.000000 243.199997 88 81 74
295.000000 -211.000000 243.199997 86 81 74
296.000000 -211.000000 243.199997 85 80 72
297.000000 -211.000000 243.199997 84 79 71
298.000000 -211.000000 243.199997 84 78 72
299.000000 -211.000000 243.600006 85 78 72
300.000000 -211.000000 243.600006 83 77 70
301.000000 -211.000000 243.600006 82 76 70
307.000000 -211.000000 208.400009 78 72 66
308.000000 -211.000000 210.400009 78 73 67
309.000000 -211.000000 212.400009 77 72 66
310.000000 -211.000000 212.400009 80 75 68
311.000000 -211.000000 75.599998 91 89 79
312.000000 -211.000000 74.400002 96 94 85
316.000000 -211.000000 5.200000 92 90 82
317.000000 -211.000000 6.400000 88 86 78
318.000000 -211.000000 6.400000 85 82 75
319.000000 -211.000000 6.400000 83 81 73
320.000000 -211.000000 5.200000 76 73 66
321.000000 -211.000000 3.200000 31 30 26
322.000000 -211.000000 2.400000 1 1 1
64.000000 -212.000000 114.400002 104 102 89
65.000000 -212.000000 115.200005 104 102 88
66.000000 -212.000000 115.200005 104 101 87
67.000000 -212.000000 115.599998 104 101 87
68.000000 -212.000000 116.400002 104 101 88
69.000000 -212.000000 117.599998 103 100 88
70.000000 -212.000000 118.000000 102 98 86
71.000000 -212.000000 117.599998 102 99 86
72.000000 -212.000000 117.200005 110 106 93
73.000000 -212.000000 117.599998 113 109 95
74.000000 -212.000000 118.000000 106 102 89
75.000000 -212.000000 118.000000 104 101 88
79.000000 -212.000000 121.599998 105 102 89
80.000000 -212.000000 122.000000 104 101 88
81.000000 -212.000000 122.800003 104 100 88
82.000000 -212.000000 125.599998 103 100 87
83.000000 -212.000000 126.800003 102 99 86
84.000000 -212.000000 127.200005 102 99 86
85.000000 -212.000000 127.200005 102 99 86
86.000000 -212.000000 126.800003 101 98 86
87.000000 -212.000000 126.800003 102 98 86
88.000000 -212.000000 126.800003 102 99 86
89.000000 -212.000000 126.800003 103 99 86
90.000000 -212.000000 126.800003 104 100 86
91.000000 -212.000000 126.400002 103 99 86
92.000000 -212.000000 126.400002 100 97 84
93.000000 -212.000000 126.400002 102 99 85
94.000000 -212.000000 127.200005 105 101 87
95.000000 -212.000000 127.200005 106 103 88
96.000000 -212.000000 127.599998 110 105 91
97.000000 -212.000000 127.599998 115 109 95
98.000000 -212.000000 127.599998 122 119 104
99.000000 -212.000000 127.599998 119 116 101
100.000000 -212.000000 127.599998 111 109 95
101.000000 -212.000000 -6.400000 110 107 93
102.000000 -212.000000 -6.400000 110 107 93
103.000000 -212.000000 -6.400000 110 107 93
104.000000 -212.000000 -6.400000 110 107 93
105.000000 -212.000000 -6.400000 108 106 92
106.000000 -212.000000 -6.400000 108 106 91
107.000000 -212.000000 -6.400000 108 105 92
108.000000 -212.000000 -6.400000 107 104 91
109.000000 -212.000000 -6.400000 107 105 91
110.000000 -212.000000 -6.400000 107 105 91
111.000000 -212.000000 -6.400000 108 106 93
112.000000 -212.000000 -6.400000 109 107 94
113.000000 -212.000000 5.600000 111 108 94
114.000000 -212.000000 127.599998 111 108 94
115.000000 -212.000000 127.599998 110 108 94
116.000000 -212.000000 128.000000 110 108 94
117.000000 -212.000000 128.400009 110 107 94
118.000000 -212.000000 128.800003 105 102 88
119.000000 -212.000000 128.800003 107 103 88
120.000000 -212.000000 128.400009 114 110 95
121.000000 -212.000000 128.400009 114 111 97
122.000000 -212.000000 128.400009 112 109 95
123.000000 -212.000000 128.400009 111 108 95
124.000000 -212.000000 -6.400000 110 108 94
125.000000 -212.000000 -6.400000 108 106 91
126.000000 -212.000000 -6.400000 100 97 84
127.000000 -212.000000 -6.400000 90 86 75
128.000000 -212.000000 -6.400000 85 77 70
129.000000 -212.000000 -6.400000 90 80 72
130.000000 -212.000000 -6.400000 93 82 74
131.000000 -212.000000 -6.400000 93 82 74
132.000000 -212.000000 -6.400000 94 83 76
133.000000 -212.000000 -6.400000 100 88 80
134.000000 -212.000000 -6.400000 102 91 82
135.000000 -212.000000 -6.400000 105 93 84
136.000000 -212.000000 -6.400000 106 93 85
137.000000 -212.000000 -6.400000 108 96 86
138.000000 -212.000000 -6.400000 106 100 86
139.000000 -212.000000 -6.400000 103 99 85
140.000000 -212.000000 -6.400000 103 99 86
141.000000 -212.000000 -6.400000 105 102 88
142.000000 -212.000000 -6.400000 107 104 89
143.000000 -212.000000 -0.800000 110 105 91
144.000000 -212.000000 1.200000 114 109 95
145.000000 -212.000000 2.800000 120 114 100
146.000000 -212.000000 3.600000 114 105 93
147.000000 -212.000000 4.000000 108 96 86
148.000000 -212.000000 4.000000 108 96 86
149.000000 -212.000000 4.000000 109 97 86
150.000000 -212.000000 -6.400000 110 98 87
151.000000 -212.000000 -6.400000 111 98 87
152.000000 -212.000000 -6.400000 109 96 85
153.000000 -212.000000 -6.400000 105 93 83
154.000000 -212.000000 -6.400000 101 89 80
155.000000 -212.000000 -6.400000 101 89 80
159.000000 -212.000000 -6.400000 107 95 85
166.000000 -212.000000 18.400000 99 90 80
167.000000 -212.000000 19.200001 96 88 78
168.000000 -212.000000 74.800003 88 84 75
169.000000 -212.000000 75.599998 87 83 75
170.000000 -212.000000 76.400002 89 84 76
171.000000 -212.000000 76.800003 90 86 77
172.000000 -212.000000 77.599998 92 88 78
173.000000 -212.000000 78.800003 93 89 80
184.000000 -212.000000 119.599998 98 94 83
185.000000 -212.000000 120.000000 99 93 83
186.000000 -212.000000 121.599998 105 98 85
187.000000 -212.000000 124.000000 108 102 87
188.000000 -212.000000 126.800003 103 99 83
189.000000 -212.000000 128.000000 101 98 84
190.000000 -212.000000 128.000000 103 100 85
191.000000 -212.000000 128.800003 105 101 86
192.000000 -212.000000 128.800003 106 102 88
193.000000 -212.000000 128.000000 108 103 89
194.000000 -212.000000 128.000000 111 106 92
195.000000 -212.000000 127.599998 110 105 92
196.000000 -212.000000 127.599998 102 97 85
197.000000 -212.000000 127.200005 101 96 85
198.000000 -212.000000 126.800003 101 97 86
199.000000 -212.000000 126.800003 101 96 85
200.000000 -212.000000 126.800003 101 96 84
201.000000 -212.000000 127.200005 101 97 84
202.000000 -212.000000 127.200005 101 96 85
203.000000 -212.000000 127.200005 101 95 84
204.000000 -212.000000 126.800003 100 95 84
205.000000 -212.000000 126.400002 100 94 82
206.000000 -212.000000 126.000000 98 94 82
207.000000 -212.000000 126.000000 97 93 81
208.000000 -212.000000 126.000000 97 93 81
209.000000 -212.000000 124.800003 98 93 82
210.000000 -212.000000 124.000000 98 93 82
211.000000 -212.000000 123.200005 99 94 82
212.000000 -212.000000 123.200005 101 96 84
213.000000 -212.000000 123.200005 101 97 84
214.000000 -212.000000 124.000000 105 100 86
215.000000 -212.000000 124.400002 106 100 88
216.000000 -212.000000 123.599998 101 96 86
217.000000 -212.000000 122.800003 100 95 85
218.000000 -212.000000 122.400002 100 95 85
219.000000 -212.000000 122.800003 100 96 85
220.000000 -212.000000 122.800003 100 96 85
221.000000 -212.000000 122.800003 99 96 85
222.000000 -212.000000 117.599998 100 96 85
223.000000 -212.000000 116.800003 101 96 85
224.000000 -212.000000 116.000000 101 95 84
225.000000 -212.000000 115.599998 100 94 84
226.000000 -212.000000 115.599998 100 95 84
227.000000 -212.000000 116.400002 99 95 84
228.000000 -212.000000 117.200005 100 94 84
229.000000 -212.000000 117.599998 99 94 83
230.000000 -212.000000 118.000000 98 93 82
231.000000 -212.000000 117.599998 98 93 82
232.000000 -212.000000 117.599998 98 93 83
233.000000 -212.000000 117.599998 98 92 82
234.000000 -212.000000 117.200005 99 93 81
235.000000 -212.000000 116.800003 105 99 86
236.000000 -212.000000 116.800003 104 99 86
237.000000 -212.000000 116.000000 101 97 84
238.000000 -212.000000 116.000000 102 97 84
239.000000 -212.000000 115.599998 102 99 85
240.000000 -212.000000 114.800003 104 99 86
241.000000 -212.000000 113.599998 104 98 86
242.000000 -212.000000 113.599998 104 98 87
243.000000 -212.000000 113.200005 101 97 86
244.000000 -212.000000 112.800003 97 93 82
245.000000 -212.000000 112.400002 96 92 81
246.000000 -212.000000 111.599998 97 92 80
247.000000 -212.000000 111.200005 97 92 81
248.000000 -212.000000 111.200005 96 92 82
249.000000 -212.000000 112.000000 95 91 81
250.000000 -212.000000 112.000000 95 91 80
251.000000 -212.000000 111.200005 94 91 80
252.000000 -212.000000 111.200005 94 90 79
253.000000 -212.000000 110.800003 93 89 79
254.000000 -212.000000 110.400002 93 89 78
255.000000 -212.000000 110.400002 93 88 78
256.000000 -212.000000 109.200005 94 89 79
257.000000 -212.000000 109.200005 94 89 79
258.000000 -212.000000 108.800003 95 90 80
259.000000 -212.000000 108.400002 101 95 84
260.000000 -212.000000 108.000000 101 95 84
261.000000 -212.000000 108.000000 99 93 82
262.000000 -212.000000 108.400002 96 90 80
263.000000 -212.000000 108.800003 92 86 77
264.000000 -212.000000 109.200005 89 83 75
265.000000 -212.000000 109.200005 83 77 71
273.000000 -212.000000 64.800003 44 42 39
274.000000 -212.000000 69.200005 60 57 52
275.000000 -212.000000 69.599998 98 95 83
276.000000 -212.000000 69.599998 123 119 105
277.000000 -212.000000 70.400002 114 110 100
278.000000 -212.000000 70.400002 107 103 92
279.000000 -212.000000 70.400002 105 100 90
280.000000 -212.000000 70.400002 105 100 89
281.000000 -212.000000 70.800003 103 97 86
282.000000 -212.000000 71.599998 97 92 80
283.000000 -212.000000 71.599998 94 90 79
284.000000 -212.000000 72.800003 93 89 78
285.000000 -212.000000 85.599998 93 89 78
286.000000 -212.000000 89.599998 92 86 77
287.000000 -212.000000 89.599998 90 83 75
288.000000 -212.000000 88.800003 85 80 73
289.000000 -212.000000 88.400002 78 75 68
290.000000 -212.000000 88.400002 83 80 72
291.000000 -212.000000 88.400002 89 84 76
292.000000 -212.000000 88.400002 88 81 75
293.000000 -212.000000 87.200005 87 81 74
294.000000 -212.000000 243.199997 86 81 74
295.000000 -212.000000 243.199997 86 81 74
296.000000 -212.000000 243.199997 85 79 73
297.000000 -212.000000 243.199997 83 78 71
298.000000 -212.000000 243.600006 82 77 71
299.000000 -212.000000 243.600006 83 77 71
300.000000 -212.000000 243.600006 82 76 70
307.000000 -212.000000 208.800003 78 72 66
308.000000 -212.000000 210.800003 77 72 66
309.000000 -212.000000 212.400009 77 72 66
310.000000 -212.000000 216.400009 79 75 67
311.000000 -212.000000 216.400009 89 88 77
316.000000 -212.000000 2.800000 90 88 80
317.000000 -212.000000 5.200000 86 85 76
318.000000 -212.000000 5.200000 85 82 73
319.000000 -212.000000 4.800000 83 81 72
320.000000 -212.000000 3.200000 78 75 66
321.000000 -212.000000 2.400000 35 34 30
322.000000 -212.000000 1.600000 2 2 2
64.000000 -213.000000 115.200005 105 102 89
65.000000 -213.000000 115.200005 105 102 89
66.000000 -213.000000 115.599998 104 102 89
67.000000 -213.000000 116.000000 104 102 88
68.000000 -213.000000 116.800003 105 102 88
69.000000 -213.000000 117.599998 105 101 88
70.000000 -213.000000 117.599998 102 98 86
71.000000 -213.000000 116.800003 101 98 85
72.000000 -213.000000 116.800003 109 106 93
73.000000 -213.000000 116.800003 114 110 97
74.000000 -213.000000 116.400002 107 105 91
75.000000 -213.000000 116.000000 106 103 90
78.000000 -213.000000 115.599998 107 104 92
79.000000 -213.000000 120.800003 107 105 92
80.000000 -213.000000 121.599998 107 104 91
81.000000 -213.000000 122.000000 107 103 91
82.000000 -213.000000 124.800003 106 103 90
83.000000 -213.000000 126.800003 107 103 90
84.000000 -213.000000 126.800003 106 103 90
85.000000 -213.000000 126.800003 106 103 90
86.000000 -213.000000 126.400002 106 103 90
87.000000 -213.000000 126.400002 108 103 91
88.000000 -213.000000 126.400002 108 104 91
89.000000 -213.000000 126.800003 108 105 91
90.000000 -213.000000 126.400002 108 104 91
91.000000 -213.000000 126.400002 104 100 87
92.000000 -213.000000 126.400002 100 97 84
93.000000 -213.000000 126.400002 101 98 85
94.000000 -213.000000 127.200005 105 101 87
95.000000 -213.000000 127.200005 106 103 88
96.000000 -213.000000 127.200005 108 105 90
97.000000 -213.000000 127.599998 114 109 95
98.000000 -213.000000 127.599998 123 118 103
99.000000 -213.000000 127.599998 120 117 102
100.000000 -213.000000 127.599998 112 109 95
101.000000 -213.000000 126.400002 110 108 94
102.000000 -213.000000 -6.400000 111 107 93
103.000000 -213.000000 -6.400000 111 108 93
104.000000 -213.000000 -6.400000 111 108 93
105.000000 -213.000000 -6.400000 109 107 92
106.000000 -213.000000 -6.400000 108 105 92
107.000000 -213.000000 -6.400000 107 104 92
108.000000 -213.000000 -6.400000 107 104 91
109.000000 -213.000000 -6.400000 107 105 91
110.000000 -213.000000 -6.400000 107 105 92
111.000000 -213.000000 -6.400000 109 106 93
112.000000 -213.000000 127.599998 111 107 95
113.000000 -213.000000 128.000000 112 109 95
114.000000 -213.000000 128.000000 113 109 96
115.000000 -213.000000 128.000000 112 109 95
116.000000 -213.000000 128.000000 112 109 95
117.000000 -213.000000 128.400009 111 107 94
118.000000 -213.000000 128.400009 106 102 88
119.000000 -213.000000 128.800003 107 103 87
120.000000 -213.000000 128.400009 115 110 95
121.000000 -213.000000 128.400009 116 113 98
122.000000 -213.000000 128.400009 113 110 97
123.000000 -213.000000 128.800003 113 109 96
124.000000 -213.000000 128.400009 113 109 96
125.000000 -213.000000 -6.400000 111 108 95
126.000000 -213.000000 -6.400000 106 102 89
127.000000 -213.000000 -6.400000 93 88 77
128.000000 -213.000000 -6.400000 82 74 68
129.000000 -213.000000 -6.400000 86 76 70
130.000000 -213.000000 -6.400000 90 79 72
131.000000 -213.000000 -6.400000 90 80 73
132.000000 -213.000000 -6.400000 91 81 74
133.000000 -213.000000 -6.400000 98 86 78
134.000000 -213.000000 -6.400000 101 89 81
135.000000 -213.000000 -6.400000 103 92 83
136.000000 -213.000000 -6.400000 103 91 83
137.000000 -213.000000 -6.400000 105 94 85
138.000000 -213.000000 -6.400000 105 99 86
139.000000 -213.000000 -6.400000 103 98 84
140.000000 -213.000000 -6.400000 103 99 85
141.000000 -213.000000 -6.400000 106 102 88
142.000000 -213.000000 -6.400000 108 103 89
143.000000 -213.000000 -1.600000 110 106 91
144.000000 -213.000000 0.000000 114 109 94
145.000000 -213.000000 1.600000 120 114 100
146.000000 -213.000000 3.200000 115 105 93
147.000000 -213.000000 3.600000 108 96 87
148.000000 -213.000000 4.000000 109 96 86
149.000000 -213.000000 1.200000 110 97 86
150.000000 -213.000000 -6.400000 110 97 87
151.000000 -213.000000 -6.400000 110 97 87
152.000000 -213.000000 -6.400000 108 95 85
153.000000 -213.000000 -6.400000 105 92 82
154.000000 -213.000000 -6.400000 100 88 80
155.000000 -213.000000 -6.400000 100 89 80
166.000000 -213.000000 17.600000 98 89 80
167.000000 -213.000000 18.400000 94 86 78
168.000000 -213.000000 19.200001 86 83 75
169.000000 -213.000000 76.000000 86 83 74
170.000000 -213.000000 76.800003 88 84 75
171.000000 -213.000000 77.599998 89 85 76
172.000000 -213.000000 79.200005 91 87 77
173.000000 -213.000000 80.400002 92 89 79
174.000000 -213.000000 80.400002 93 89 80
184.000000 -213.000000 119.599998 97 93 82
185.000000 -213.000000 119.599998 98 93 82
186.000000 -213.000000 121.599998 104 98 85
187.000000 -213.000000 123.599998 106 101 87
188.000000 -213.000000 126.400002 103 98 84
189.000000 -213.000000 127.200005 101 98 83
190.000000 -213.000000 128.000000 103 99 85
191.000000 -213.000000 128.400009 104 101 86
192.000000 -213.000000 128.400009 105 102 87
193.000000 -213.000000 128.000000 107 102 88
194.000000 -213.000000 127.599998 110 105 91
195.000000 -213.000000 127.599998 109 105 91
196.000000 -213.000000 127.200005 101 97 85
197.000000 -213.000000 127.200005 100 96 84
198.000000 -213.000000 127.200005 100 97 84
199.000000 -213.000000 127.200005 100 96 84
200.000000 -213.000000 126.800003 101 96 84
201.000000 -213.000000 126.800003 101 96 84
202.000000 -213.000000 126.800003 100 96 84
203.000000 -213.000000 126.800003 100 96 83
204.000000 -213.000000 126.400002 100 95 83
205.000000 -213.000000 126.000000 100 94 82
206.000000 -213.000000 126.000000 99 94 82
207.000000 -213.000000 126.000000 98 93 82
208.000000 -213.000000 125.599998 97 93 82
209.000000 -213.000000 124.000000 97 93 82
210.000000 -213.000000 123.200005 98 93 82
211.000000 -213.000000 122.800003 99 93 82
212.000000 -213.000000 122.800003 102 96 84
213.000000 -213.000000 122.800003 101 98 84
214.000000 -213.000000 123.200005 105 101 87
215.000000 -213.000000 123.200005 104 100 88
216.000000 -213.000000 122.400002 100 95 84
217.000000 -213.000000 122.400002 99 94 84
218.000000 -213.000000 122.400002 99 94 84
219.000000 -213.000000 122.400002 99 95 84
220.000000 -213.000000 122.800003 99 95 85
221.000000 -213.000000 122.800003 99 95 85
222.000000 -213.000000 119.599998 100 96 85
223.000000 -213.000000 117.599998 101 96 85
224.000000 -213.000000 117.200005 100 94 83
225.000000 -213.000000 116.400002 100 93 82
226.000000 -213.000000 116.400002 99 94 82
227.000000 -213.000000 116.400002 99 94 82
228.000000 -213.000000 116.800003 99 94 82
229.000000 -213.000000 117.200005 99 94 82
230.000000 -213.000000 117.599998 98 93 81
231.000000 -213.000000 117.200005 97 92 81
232.000000 -213.000000 117.599998 97 92 81
233.000000 -213.000000 117.200005 97 92 81
234.000000 -213.000000 116.800003 99 93 81
235.000000 -213.000000 116.400002 105 99 86
236.000000 -213.000000 116.000000 104 99 86
237.000000 -213.000000 116.000000 102 97 84
238.000000 -213.000000 115.599998 101 97 84
239.000000 -213.000000 115.200005 102 98 84
240.000000 -213.000000 114.400002 104 99 85
241.000000 -213.000000 113.599998 103 98 86
242.000000 -213.000000 113.599998 103 98 87
243.000000 -213.000000 113.200005 101 97 85
244.000000 -213.000000 113.200005 97 93 82
245.000000 -213.000000 112.800003 96 92 81
246.000000 -213.000000 112.400002 96 91 80
247.000000 -213.000000 111.599998 96 91 79
248.000000 -213.000000 111.599998 96 90 80
249.000000 -213.000000 112.400002 95 90 79
250.000000 -213.000000 112.400002 94 90 79
251.000000 -213.000000 111.200005 93 89 79
252.000000 -213.000000 111.200005 93 89 78
253.000000 -213.000000 110.800003 93 88 78
254.000000 -213.000000 110.400002 92 87 77
255.000000 -213.000000 110.000000 93 87 77
256.000000 -213.000000 109.200005 93 88 78
257.000000 -213.000000 108.800003 93 87 78
258.000000 -213.000000 108.800003 95 89 79
259.000000 -213.000000 108.400002 101 95 84
260.000000 -213.000000 108.000000 100 94 83
261.000000 -213.000000 108.000000 97 91 80
262.000000 -213.000000 108.400002 93 87 78
263.000000 -213.000000 108.800003 88 82 74
264.000000 -213.000000 109.599998 81 75 70
265.000000 -213.000000 109.599998 73 67 64
266.000000 -213.000000 105.200005 61 56 55
273.000000 -213.000000 65.200005 46 43 41
274.000000 -213.000000 69.200005 61 59 53
275.000000 -213.000000 69.599998 93 91 79
276.000000 -213.000000 69.599998 114 110 98
277.000000 -213.000000 70.000000 105 101 92
278.000000 -213.000000 70.000000 103 100 89
279.000000 -213.000000 70.400002 103 99 88
280.000000 -213.000000 70.400002 104 100 88
281.000000 -213.000000 70.400002 102 97 85
282.000000 -213.000000 70.400002 96 92 80
285.000000 -213.000000 88.400002 92 88 78
286.000000 -213.000000 90.000000 91 86 77
287.000000 -213.000000 89.599998 90 84 75
288.000000 -213.000000 89.599998 86 80 73
289.000000 -213.000000 88.800003 78 75 68
290.000000 -213.000000 88.800003 83 79 71
291.000000 -213.000000 88.800003 88 82 75
292.000000 -213.000000 88.800003 88 81 74
293.000000 -213.000000 88.000000 87 81 74
297.000000 -213.000000 243.199997 83 77 71
298.000000 -213.000000 243.199997 81 75 69
299.000000 -213.000000 243.199997 80 75 70
307.000000 -213.000000 210.000000 77 72 67
308.000000 -213.000000 211.199997 76 71 66
309.000000 -213.000000 212.800003 76 71 65
310.000000 -213.000000 216.800003 78 74 67
311.000000 -213.000000 216.800003 88 86 76
316.000000 -213.000000 1.200000 89 87 79
317.000000 -213.000000 2.800000 85 84 75
318.000000 -213.000000 2.800000 84 82 72
319.000000 -213.000000 2.800000 82 81 71
320.000000 -213.000000 2.000000 79 77 68
321.000000 -213.000000 1.600000 40 39 35
322.000000 -213.000000 1.200000 3 3 3
63.000000 -214.000000 114.800003 103 100 88
64.000000 -214.000000 115.200005 104 101 89
65.000000 -214.000000 115.599998 103 101 89
66.000000 -214.000000 115.599998 103 101 88
67.000000 -214.000000 116.400002 103 101 88
68.000000 -214.000000 117.200005 103 101 88
69.000000 -214.000000 118.000000 104 100 88
70.000000 -214.000000 118.000000 102 98 85
71.000000 -214.000000 117.200005 101 98 84
72.000000 -214.000000 116.800003 109 106 92
73.000000 -214.000000 116.800003 114 110 97
74.000000 -214.000000 116.400002 106 104 91
75.000000 -214.000000 116.000000 105 103 91
76.000000 -214.000000 115.200005 106 103 90
77.000000 -214.000000 115.599998 106 103 90
78.000000 -214.000000 116.000000 106 104 91
79.000000 -214.000000 120.400002 107 104 91
80.000000 -214.000000 121.599998 107 105 91
81.000000 -214.000000 122.000000 107 104 91
82.000000 -214.000000 124.400002 107 103 90
83.000000 -214.000000 126.800003 107 103 90
84.000000 -214.000000 126.800003 107 104 91
85.000000 -214.000000 126.400002 107 104 90
86.000000 -214.000000 126.000000 108 105 91
87.000000 -214.000000 126.000000 109 105 92
88.000000 -214.000000 126.000000 109 105 93
89.000000 -214.000000 126.000000 108 106 93
90.000000 -214.000000 125.200005 108 106 92
91.000000 -214.000000 125.599998 104 101 87
92.000000 -214.000000 126.000000 99 97 83
93.000000 -214.000000 126.400002 101 98 84
94.000000 -214.000000 127.200005 104 100 86
95.000000 -214.000000 127.200005 106 102 88
96.000000 -214.000000 127.200005 108 105 90
97.000000 -214.000000 127.599998 113 109 94
98.000000 -214.000000 127.200005 122 118 103
99.000000 -214.000000 127.200005 121 117 102
100.000000 -214.000000 127.200005 112 109 95
101.000000 -214.000000 126.400002 110 107 94
102.000000 -214.000000 124.400002 110 108 94
103.000000 -214.000000 123.200005 111 108 93
104.000000 -214.000000 -6.400000 111 107 92
105.000000 -214.000000 -6.400000 109 106 92
106.000000 -214.000000 -6.400000 107 105 92
107.000000 -214.000000 -6.400000 107 104 91
108.000000 -214.000000 -6.400000 107 104 91
109.000000 -214.000000 -6.400000 106 104 91
110.000000 -214.000000 -6.400000 107 104 92
111.000000 -214.000000 -6.400000 108 105 93
112.000000 -214.000000 128.000000 109 106 94
113.000000 -214.000000 128.000000 112 107 95
114.000000 -214.000000 128.000000 113 108 96
115.000000 -214.000000 128.000000 113 109 96
116.000000 -214.000000 128.000000 112 109 95
117.000000 -214.000000 128.400009 111 108 95
118.000000 -214.000000 128.400009 106 102 89
119.000000 -214.000000 128.400009 106 102 87
120.000000 -214.000000 128.400009 115 110 95
121.000000 -214.000000 128.400009 117 112 98
122.000000 -214.000000 128.400009 113 110 96
123.000000 -214.000000 128.800003 113 110 96
124.000000 -214.000000 128.400009 113 110 96
125.000000 -214.000000 -6.400000 111 109 95
126.000000 -214.000000 -6.400000 106 102 89
127.000000 -214.000000 -6.400000 92 87 77
128.000000 -214.000000 -6.400000 79 72 66
129.000000 -214.000000 -6.400000 82 73 67
130.000000 -214.000000 -6.400000 86 75 70
131.000000 -214.000000 -6.400000 86 77 70
132.000000 -214.000000 -6.400000 88 78 71
133.000000 -214.000000 -6.400000 97 85 78
134.000000 -214.000000 -6.400000 101 88 81
135.000000 -214.000000 -6.400000 102 90 82
136.000000 -214.000000 -6.400000 100 88 80
137.000000 -214.000000 -6.400000 102 92 83
138.000000 -214.000000 -6.400000 104 98 86
139.000000 -214.000000 -6.400000 102 98 84
140.000000 -214.000000 -6.400000 103 99 85
141.000000 -214.000000 -6.400000 106 101 87
142.000000 -214.000000 -6.400000 108 104 90
143.000000 -214.000000 -1.600000 111 106 91
144.000000 -214.000000 -0.400000 115 110 94
145.000000 -214.000000 0.400000 120 114 99
146.000000 -214.000000 0.800000 114 103 92
147.000000 -214.000000 1.200000 107 94 85
148.000000 -214.000000 0.800000 107 94 84
149.000000 -214.000000 0.000000 108 94 84
150.000000 -214.000000 -6.400000 108 94 85
151.000000 -214.000000 -6.400000 107 94 85
152.000000 -214.000000 -6.400000 104 92 83
153.000000 -214.000000 -6.400000 101 89 80
154.000000 -214.000000 -6.400000 98 86 79
155.000000 -214.000000 -6.400000 99 88 80
156.000000 -214.000000 -6.400000 100 88 80
167.000000 -214.000000 18.000000 87 82 74
168.000000 -214.000000 19.200001 85 81 73
169.000000 -214.000000 19.600000 85 82 74
170.000000 -214.000000 76.400002 87 83 75
171.000000 -214.000000 77.200005 89 85 76
172.000000 -214.000000 79.200005 90 86 76
173.000000 -214.000000 79.599998 92 88 78
174.000000 -214.000000 79.599998 92 89 79
184.000000 -214.000000 119.599998 96 92 81
185.000000 -214.000000 119.599998 98 93 81
186.000000 -214.000000 121.599998 103 98 85
187.000000 -214.000000 123.200005 106 101 87
188.000000 -214.000000 126.000000 102 98 83
189.000000 -214.000000 126.800003 101 98 83
190.000000 -214.000000 127.599998 103 99 84
191.000000 -214.000000 128.000000 104 101 85
192.000000 -214.000000 128.000000 105 101 86
193.000000 -214.000000 128.000000 107 102 87
194.000000 -214.000000 127.599998 110 105 91
195.000000 -214.000000 127.200005 109 104 90
196.000000 -214.000000 127.200005 100 95 84
197.000000 -214.000000 127.200005 99 94 82
198.000000 -214.000000 127.599998 99 95 82
199.000000 -214.000000 127.599998 99 95 82
200.000000 -214.000000 126.800003 100 95 83
201.000000 -214.000000 126.800003 100 95 83
202.000000 -214.000000 126.800003 99 95 83
203.000000 -214.000000 126.400002 98 95 82
204.000000 -214.000000 126.000000 98 94 82
205.000000 -214.000000 125.599998 99 93 82
206.000000 -214.000000 125.599998 99 94 82
207.000000 -214.000000 125.599998 98 94 81
208.000000 -214.000000 125.599998 97 93 82
209.000000 -214.000000 123.599998 97 93 82
210.000000 -214.000000 122.800003 98 93 81
211.000000 -214.000000 122.400002 99 93 82
212.000000 -214.000000 122.400002 102 97 85
213.000000 -214.000000 122.400002 102 98 85
214.000000 -214.000000 122.400002 105 100 87
215.000000 -214.000000 122.400002 104 99 86
216.000000 -214.000000 122.400002 98 94 82
217.000000 -214.000000 122.400002 97 92 81
218.000000 -214.000000 122.000000 97 92 81
219.000000 -214.000000 122.400002 97 93 82
220.000000 -214.000000 122.800003 97 93 83
221.000000 -214.000000 122.800003 97 93 83
222.000000 -214.000000 120.800003 99 95 84
223.000000 -214.000000 119.599998 100 95 85
224.000000 -214.000000 119.200005 99 94 83
225.000000 -214.000000 117.599998 99 94 82
226.000000 -214.000000 116.400002 98 93 82
227.000000 -214.000000 116.400002 98 94 82
228.000000 -214.000000 116.400002 98 94 83
229.000000 -214.000000 117.200005 98 92 82
230.000000 -214.000000 117.200005 97 91 81
231.000000 -214.000000 117.200005 96 90 80
232.000000 -214.000000 117.200005 95 91 80
233.000000 -214.000000 116.800003 96 91 80
234.000000 -214.000000 116.400002 97 92 81
235.000000 -214.000000 116.400002 104 99 86
236.000000 -214.000000 116.000000 105 99 86
237.000000 -214.000000 115.599998 102 97 83
238.000000 -214.000000 115.200005 102 97 84
239.000000 -214.000000 114.800003 102 98 85
240.000000 -214.000000 114.400002 103 99 86
241.000000 -214.000000 113.599998 103 98 86
242.000000 -214.000000 113.599998 104 99 87
243.000000 -214.000000 113.599998 102 96 85
244.000000 -214.000000 113.200005 96 92 81
245.000000 -214.000000 112.800003 95 91 81
246.000000 -214.000000 112.800003 96 90 80
247.000000 -214.000000 111.599998 96 89 79
248.000000 -214.000000 111.599998 95 89 80
249.000000 -214.000000 112.800003 95 90 79
250.000000 -214.000000 112.800003 94 89 79
251.000000 -214.000000 111.599998 93 88 79
252.000000 -214.000000 111.200005 93 88 78
253.000000 -214.000000 110.800003 93 88 77
254.000000 -214.000000 110.400002 93 88 78
255.000000 -214.000000 109.599998 93 88 78
256.000000 -214.000000 109.200005 93 88 79
257.000000 -214.000000 108.800003 92 87 77
258.000000 -214.000000 108.400002 94 88 79
259.000000 -214.000000 108.000000 101 95 84
260.000000 -214.000000 107.599998 99 94 82
261.000000 -214.000000 108.000000 96 90 80
262.000000 -214.000000 108.400002 90 83 75
263.000000 -214.000000 108.800003 80 74 68
264.000000 -214.000000 109.200005 72 66 63
265.000000 -214.000000 108.800003 59 55 53
266.000000 -214.000000 107.200005 51 47 46
267.000000 -214.000000 104.400002 49 45 44
268.000000 -214.000000 104.400002 48 45 44
269.000000 -214.000000 104.400002 47 44 42
272.000000 -214.000000 63.200001 46 43 42
273.000000 -214.000000 64.800003 48 45 43
274.000000 -214.000000 68.400002 62 59 54
275.000000 -214.000000 69.200005 87 85 76
276.000000 -214.000000 69.200005 102 99 90
277.000000 -214.000000 69.599998 98 94 86
278.000000 -214.000000 69.599998 98 95 85
279.000000 -214.000000 70.000000 97 95 84
280.000000 -214.000000 70.000000 102 98 86
281.000000 -214.000000 70.400002 101 96 85
282.000000 -214.000000 70.400002 96 91 80
284.000000 -214.000000 88.400002 92 88 77
285.000000 -214.000000 93.599998 92 87 77
286.000000 -214.000000 93.200005 91 86 76
287.000000 -214.000000 90.400002 90 84 75
288.000000 -214.000000 90.000000 85 79 72
289.000000 -214.000000 89.200005 77 74 67
290.000000 -214.000000 89.200005 82 78 70
291.000000 -214.000000 89.200005 88 82 75
292.000000 -214.000000 89.200005 88 82 75
293.000000 -214.000000 88.000000 88 82 75
297.000000 -214.000000 158.000000 82 76 71
298.000000 -214.000000 158.800003 79 74 69
299.000000 -214.000000 159.199997 79 73 68
308.000000 -214.000000 211.199997 77 71 66
309.000000 -214.000000 213.199997 75 70 65
310.000000 -214.000000 216.800003 76 73 66
311.000000 -214.000000 216.800003 87 85 75
315.000000 -214.000000 0.000000 93 92 83
316.000000 -214.000000 0.000000 89 87 79
317.000000 -214.000000 1.200000 85 83 75
318.000000 -214.000000 1.600000 83 81 72
319.000000 -214.000000 1.600000 82 80 71
320.000000 -214.000000 1.200000 81 78 69
321.000000 -214.000000 1.200000 45 44 39
322.000000 -214.000000 0.800000 4 4 4
63.000000 -215.000000 115.200005 104 102 89
64.000000 -215.000000 116.000000 104 102 89
65.000000 -215.000000 116.000000 103 101 89
66.000000 -215.000000 116.400002 103 101 88
67.000000 -215.000000 116.800003 103 101 88
68.000000 -215.000000 117.200005 103 100 88
69.000000 -215.000000 118.000000 102 99 87
70.000000 -215.000000 118.400002 100 98 85
71.000000 -215.000000 118.000000 100 97 85
72.000000 -215.000000 117.200005 108 105 92
73.000000 -215.000000 117.200005 113 111 96
74.000000 -215.000000 116.800003 105 103 91
75.000000 -215.000000 116.400002 103 101 89
76.000000 -215.000000 115.599998 103 101 89
77.000000 -215.000000 116.000000 104 101 89
78.000000 -215.000000 116.000000 104 102 89
79.000000 -215.000000 120.400002 104 102 89
80.000000 -215.000000 121.200005 105 103 90
81.000000 -215.000000 121.599998 105 102 90
82.000000 -215.000000 123.200005 105 102 90
83.000000 -215.000000 124.400002 105 102 89
84.000000 -215.000000 125.599998 105 103 89
85.000000 -215.000000 125.200005 105 103 89
86.000000 -215.000000 124.400002 106 104 90
87.000000 -215.000000 124.400002 108 105 91
88.000000 -215.000000 124.000000 108 105 92
89.000000 -215.000000 124.400002 108 105 92
90.000000 -215.000000 124.800003 108 105 91
91.000000 -215.000000 124.800003 104 101 87
92.000000 -215.000000 125.599998 99 96 83
93.000000 -215.000000 126.000000 100 97 84
94.000000 -215.000000 126.400002 103 99 86
95.000000 -215.000000 127.200005 106 102 88
96.000000 -215.000000 127.200005 108 104 90
97.000000 -215.000000 127.200005 113 108 94
98.000000 -215.000000 126.800003 122 118 103
99.000000 -215.000000 126.400002 121 117 102
