ply
        format ascii 1.0
        element vertex 59148
        property float x
        property float y
        property float z
        property uchar red
        property uchar green
        property uchar blue
        end_header
119.000000 -137.000000 15.200000 140 144 136
120.000000 -137.000000 20.000000 144 146 137
121.000000 -137.000000 20.000000 145 147 138
125.000000 -137.000000 47.200001 134 140 132
126.000000 -137.000000 52.799999 123 130 123
127.000000 -137.000000 56.400002 99 104 103
128.000000 -137.000000 58.799999 87 90 91
129.000000 -137.000000 63.200001 83 87 88
130.000000 -137.000000 66.400002 82 85 86
131.000000 -137.000000 67.200005 82 84 85
132.000000 -137.000000 72.400002 88 92 92
133.000000 -137.000000 74.800003 99 104 102
134.000000 -137.000000 76.800003 100 105 104
135.000000 -137.000000 78.400002 99 105 102
136.000000 -137.000000 79.200005 84 88 87
137.000000 -137.000000 81.200005 74 76 76
138.000000 -137.000000 83.599998 67 68 71
139.000000 -137.000000 84.400002 64 64 67
140.000000 -137.000000 84.800003 60 59 62
141.000000 -137.000000 85.200005 57 57 60
142.000000 -137.000000 85.599998 55 55 59
143.000000 -137.000000 86.800003 55 53 57
144.000000 -137.000000 88.000000 54 52 56
145.000000 -137.000000 88.400002 53 52 56
146.000000 -137.000000 88.400002 55 53 57
147.000000 -137.000000 88.800003 52 51 55
148.000000 -137.000000 88.800003 50 49 54
149.000000 -137.000000 88.800003 50 50 54
150.000000 -137.000000 88.800003 52 51 55
151.000000 -137.000000 89.200005 57 56 59
152.000000 -137.000000 89.599998 61 60 62
153.000000 -137.000000 89.599998 61 60 61
154.000000 -137.000000 -0.400000 66 65 64
155.000000 -137.000000 -1.200000 73 72 69
156.000000 -137.000000 -1.200000 67 65 64
157.000000 -137.000000 -0.800000 65 62 62
158.000000 -137.000000 -0.400000 64 61 61
159.000000 -137.000000 -0.400000 62 58 58
160.000000 -137.000000 -0.400000 61 57 57
161.000000 -137.000000 -1.200000 60 56 57
162.000000 -137.000000 -2.400000 59 54 56
163.000000 -137.000000 -6.400000 58 54 55
164.000000 -137.000000 -2.000000 65 58 58
165.000000 -137.000000 -1.200000 80 68 66
166.000000 -137.000000 -0.400000 97 86 83
167.000000 -137.000000 0.400000 111 106 103
168.000000 -137.000000 1.600000 113 114 112
169.000000 -137.000000 2.800000 111 112 107
170.000000 -137.000000 5.200000 108 106 101
171.000000 -137.000000 6.400000 96 94 91
172.000000 -137.000000 8.400001 78 75 73
173.000000 -137.000000 12.800000 76 74 71
174.000000 -137.000000 13.200000 75 74 71
175.000000 -137.000000 13.200000 71 69 66
176.000000 -137.000000 12.400001 71 73 69
177.000000 -137.000000 8.800000 81 89 82
178.000000 -137.000000 8.800000 84 95 87
179.000000 -137.000000 8.000000 89 98 90
180.000000 -137.000000 7.200000 110 111 104
181.000000 -137.000000 7.200000 126 129 125
182.000000 -137.000000 6.800000 115 121 117
183.000000 -137.000000 7.200000 89 92 89
184.000000 -137.000000 7.200000 66 69 68
185.000000 -137.000000 7.600000 61 64 63
186.000000 -137.000000 9.200000 72 77 74
187.000000 -137.000000 14.400001 77 82 78
188.000000 -137.000000 26.000000 66 72 69
189.000000 -137.000000 28.000000 97 103 97
190.000000 -137.000000 29.600000 140 146 137
191.000000 -137.000000 30.400000 146 152 143
192.000000 -137.000000 31.600000 147 152 143
193.000000 -137.000000 32.000000 146 152 143
194.000000 -137.000000 32.400002 146 152 142
195.000000 -137.000000 32.400002 145 152 142
196.000000 -137.000000 32.799999 145 151 142
197.000000 -137.000000 33.200001 145 150 142
198.000000 -137.000000 33.200001 144 150 140
199.000000 -137.000000 33.200001 142 149 140
200.000000 -137.000000 33.200001 141 148 139
201.000000 -137.000000 33.600002 141 147 138
202.000000 -137.000000 34.000000 140 146 137
203.000000 -137.000000 34.000000 140 145 136
204.000000 -137.000000 34.000000 139 144 135
205.000000 -137.000000 34.000000 138 143 134
206.000000 -137.000000 34.799999 137 142 133
207.000000 -137.000000 34.799999 136 142 132
208.000000 -137.000000 35.200001 135 141 132
209.000000 -137.000000 35.200001 135 141 131
210.000000 -137.000000 35.200001 135 141 131
211.000000 -137.000000 34.799999 135 140 131
212.000000 -137.000000 34.799999 135 140 132
213.000000 -137.000000 36.000000 134 140 131
214.000000 -137.000000 36.400002 134 139 131
215.000000 -137.000000 36.400002 133 139 130
216.000000 -137.000000 36.400002 132 138 130
217.000000 -137.000000 36.400002 133 138 130
218.000000 -137.000000 36.799999 133 138 129
219.000000 -137.000000 36.799999 132 137 129
220.000000 -137.000000 36.799999 131 137 129
221.000000 -137.000000 36.799999 130 136 129
222.000000 -137.000000 37.200001 131 136 128
223.000000 -137.000000 37.200001 130 136 127
224.000000 -137.000000 37.600002 130 135 128
225.000000 -137.000000 38.000000 130 135 127
226.000000 -137.000000 38.000000 129 134 126
227.000000 -137.000000 38.400002 128 134 126
228.000000 -137.000000 38.400002 126 130 124
229.000000 -137.000000 38.400002 113 115 112
230.000000 -137.000000 38.799999 117 120 113
231.000000 -137.000000 39.200001 125 129 120
232.000000 -137.000000 39.200001 120 122 113
233.000000 -137.000000 39.600002 122 125 115
234.000000 -137.000000 40.000000 124 128 120
235.000000 -137.000000 40.400002 122 127 119
236.000000 -137.000000 40.799999 121 127 119
237.000000 -137.000000 40.799999 121 126 119
238.000000 -137.000000 40.400002 122 125 118
239.000000 -137.000000 40.400002 121 125 118
240.000000 -137.000000 41.200001 121 125 117
241.000000 -137.000000 42.799999 121 124 117
242.000000 -137.000000 42.799999 121 124 117
243.000000 -137.000000 42.400002 121 124 117
244.000000 -137.000000 40.400002 120 123 117
245.000000 -137.000000 39.200001 120 123 117
246.000000 -137.000000 39.200001 120 123 118
247.000000 -137.000000 39.600002 121 123 118
248.000000 -137.000000 42.400002 121 123 118
249.000000 -137.000000 43.200001 121 123 118
250.000000 -137.000000 44.000000 120 123 118
251.000000 -137.000000 44.000000 120 123 118
252.000000 -137.000000 42.799999 120 123 118
253.000000 -137.000000 40.400002 120 122 118
254.000000 -137.000000 40.400002 119 121 117
255.000000 -137.000000 42.799999 119 121 117
256.000000 -137.000000 44.000000 119 120 117
257.000000 -137.000000 44.400002 119 120 115
258.000000 -137.000000 44.400002 117 119 114
259.000000 -137.000000 44.000000 117 118 114
260.000000 -137.000000 44.000000 117 118 114
261.000000 -137.000000 44.000000 117 118 114
262.000000 -137.000000 44.400002 117 117 114
263.000000 -137.000000 44.799999 116 117 114
264.000000 -137.000000 44.799999 116 117 114
265.000000 -137.000000 44.799999 115 116 113
266.000000 -137.000000 44.799999 114 116 113
267.000000 -137.000000 44.799999 115 116 113
268.000000 -137.000000 44.799999 115 115 113
269.000000 -137.000000 45.200001 115 115 113
270.000000 -137.000000 45.200001 115 115 113
271.000000 -137.000000 45.600002 114 114 111
272.000000 -137.000000 46.400002 114 114 111
273.000000 -137.000000 46.400002 113 114 110
274.000000 -137.000000 46.400002 113 113 110
275.000000 -137.000000 46.000000 113 113 111
276.000000 -137.000000 45.600002 113 112 111
277.000000 -137.000000 45.200001 112 110 108
278.000000 -137.000000 46.000000 112 109 108
279.000000 -137.000000 46.799999 111 108 108
280.000000 -137.000000 47.200001 111 108 107
281.000000 -137.000000 47.200001 111 108 107
282.000000 -137.000000 47.200001 110 107 106
283.000000 -137.000000 47.200001 110 107 106
284.000000 -137.000000 47.200001 109 106 106
285.000000 -137.000000 46.799999 109 106 105
286.000000 -137.000000 47.200001 109 106 105
287.000000 -137.000000 47.200001 105 103 104
288.000000 -137.000000 47.200001 98 92 98
289.000000 -137.000000 47.600002 93 87 94
290.000000 -137.000000 48.400002 93 85 93
291.000000 -137.000000 48.400002 92 85 92
292.000000 -137.000000 45.600002 91 84 90
293.000000 -137.000000 45.200001 90 84 88
294.000000 -137.000000 45.200001 88 81 87
295.000000 -137.000000 44.799999 77 71 78
296.000000 -137.000000 44.799999 64 60 66
297.000000 -137.000000 44.400002 76 70 75
298.000000 -137.000000 44.000000 82 75 82
299.000000 -137.000000 44.000000 77 71 78
300.000000 -137.000000 43.600002 72 66 73
301.000000 -137.000000 43.600002 69 63 68
302.000000 -137.000000 43.600002 65 60 65
303.000000 -137.000000 43.600002 61 56 61
304.000000 -137.000000 43.200001 61 56 60
305.000000 -137.000000 43.200001 74 68 70
306.000000 -137.000000 42.799999 89 83 85
307.000000 -137.000000 42.799999 95 89 91
308.000000 -137.000000 42.799999 96 90 93
309.000000 -137.000000 41.200001 95 89 94
310.000000 -137.000000 41.200001 95 89 93
311.000000 -137.000000 40.799999 95 88 93
312.000000 -137.000000 40.799999 92 85 91
313.000000 -137.000000 40.000000 86 80 86
314.000000 -137.000000 40.000000 68 61 69
315.000000 -137.000000 40.000000 41 35 43
316.000000 -137.000000 40.000000 33 28 33
317.000000 -137.000000 -1.200000 22 20 23
318.000000 -137.000000 -1.200000 4 4 5
319.000000 -137.000000 -0.400000 0 0 0
320.000000 -137.000000 -0.400000 0 0 0
321.000000 -137.000000 0.000000 0 0 0
322.000000 -137.000000 0.000000 0 0 0
63.000000 -138.000000 24.800001 54 56 58
64.000000 -138.000000 26.800001 51 54 56
65.000000 -138.000000 26.800001 57 59 62
66.000000 -138.000000 26.800001 70 73 73
67.000000 -138.000000 26.800001 65 68 68
68.000000 -138.000000 26.800001 60 62 68
69.000000 -138.000000 26.000000 86 90 97
70.000000 -138.000000 25.600000 122 133 127
71.000000 -138.000000 25.600000 101 110 100
72.000000 -138.000000 25.600000 67 71 71
73.000000 -138.000000 24.000000 65 68 70
74.000000 -138.000000 -2.400000 69 73 72
75.000000 -138.000000 -0.400000 63 67 67
76.000000 -138.000000 0.000000 73 76 78
77.000000 -138.000000 0.000000 99 105 101
78.000000 -138.000000 -0.800000 98 104 99
79.000000 -138.000000 -6.400000 99 103 100
80.000000 -138.000000 -6.400000 105 111 107
81.000000 -138.000000 -6.400000 132 141 137
82.000000 -138.000000 -6.400000 170 180 165
83.000000 -138.000000 -6.400000 176 184 169
84.000000 -138.000000 -6.400000 187 198 180
85.000000 -138.000000 -6.400000 181 192 175
86.000000 -138.000000 -6.400000 186 199 181
87.000000 -138.000000 -6.400000 190 203 184
88.000000 -138.000000 -6.400000 190 204 185
89.000000 -138.000000 -6.400000 191 205 186
90.000000 -138.000000 -6.400000 193 205 186
91.000000 -138.000000 -6.400000 193 206 187
92.000000 -138.000000 -6.400000 189 204 184
93.000000 -138.000000 -6.400000 167 180 160
94.000000 -138.000000 -6.400000 127 134 124
95.000000 -138.000000 248.000000 98 101 98
96.000000 -138.000000 255.199997 79 83 82
97.000000 -138.000000 255.199997 70 74 74
98.000000 -138.000000 256.000000 68 71 71
99.000000 -138.000000 258.000000 68 71 72
107.000000 -138.000000 -6.400000 60 63 67
108.000000 -138.000000 -6.400000 73 78 89
109.000000 -138.000000 -6.400000 99 110 121
110.000000 -138.000000 -6.400000 109 122 132
111.000000 -138.000000 -6.400000 110 124 134
112.000000 -138.000000 -6.400000 116 128 139
113.000000 -138.000000 0.000000 144 153 157
114.000000 -138.000000 8.400001 128 140 147
115.000000 -138.000000 12.800000 113 126 137
116.000000 -138.000000 13.600000 121 134 141
117.000000 -138.000000 14.800000 141 149 146
118.000000 -138.000000 15.200000 147 152 143
119.000000 -138.000000 16.400000 147 152 142
120.000000 -138.000000 20.800001 148 153 142
121.000000 -138.000000 21.200001 146 151 141
125.000000 -138.000000 47.200001 135 142 134
126.000000 -138.000000 52.799999 119 125 120
127.000000 -138.000000 56.799999 95 98 98
128.000000 -138.000000 58.799999 85 88 89
129.000000 -138.000000 64.000000 83 86 87
130.000000 -138.000000 67.200005 82 85 85
131.000000 -138.000000 70.400002 81 83 84
132.000000 -138.000000 73.200005 90 94 95
133.000000 -138.000000 74.800003 100 105 103
134.000000 -138.000000 76.800003 102 107 105
135.000000 -138.000000 78.800003 98 102 100
136.000000 -138.000000 79.200005 81 83 84
137.000000 -138.000000 81.599998 72 73 74
138.000000 -138.000000 84.000000 67 68 70
139.000000 -138.000000 84.400002 63 63 66
140.000000 -138.000000 84.800003 59 58 61
141.000000 -138.000000 85.200005 56 56 59
142.000000 -138.000000 85.599998 55 54 58
143.000000 -138.000000 86.800003 54 53 56
144.000000 -138.000000 88.000000 53 52 55
145.000000 -138.000000 88.000000 53 52 56
146.000000 -138.000000 88.400002 54 53 57
147.000000 -138.000000 88.400002 52 51 54
148.000000 -138.000000 88.400002 51 49 53
149.000000 -138.000000 88.400002 51 50 54
150.000000 -138.000000 88.400002 53 52 56
151.000000 -138.000000 89.200005 59 58 61
152.000000 -138.000000 90.000000 67 66 66
153.000000 -138.000000 90.000000 68 69 67
154.000000 -138.000000 -0.400000 67 67 65
155.000000 -138.000000 -0.400000 72 71 69
156.000000 -138.000000 -0.400000 73 72 70
157.000000 -138.000000 -0.400000 69 68 67
158.000000 -138.000000 -0.400000 63 61 60
159.000000 -138.000000 -0.400000 61 57 58
160.000000 -138.000000 -0.400000 61 56 57
161.000000 -138.000000 -0.800000 60 55 56
162.000000 -138.000000 -1.200000 59 55 56
163.000000 -138.000000 -2.000000 60 56 57
164.000000 -138.000000 -1.200000 77 69 67
165.000000 -138.000000 -0.400000 118 101 94
166.000000 -138.000000 0.000000 134 119 109
167.000000 -138.000000 0.400000 133 126 119
168.000000 -138.000000 1.200000 130 134 128
169.000000 -138.000000 2.800000 117 122 118
170.000000 -138.000000 4.400000 122 127 122
171.000000 -138.000000 6.000000 107 110 106
172.000000 -138.000000 7.200000 80 80 77
173.000000 -138.000000 8.400001 69 67 66
174.000000 -138.000000 8.400001 65 65 65
175.000000 -138.000000 7.600000 66 67 65
176.000000 -138.000000 7.600000 66 68 66
177.000000 -138.000000 7.600000 74 80 76
178.000000 -138.000000 7.600000 79 88 83
179.000000 -138.000000 7.200000 83 90 85
180.000000 -138.000000 6.800000 99 101 94
181.000000 -138.000000 6.800000 114 116 112
182.000000 -138.000000 6.800000 106 110 108
183.000000 -138.000000 7.200000 83 86 84
184.000000 -138.000000 7.600000 64 66 65
185.000000 -138.000000 9.600000 56 60 59
186.000000 -138.000000 11.600000 66 70 68
187.000000 -138.000000 24.000000 73 77 74
188.000000 -138.000000 25.600000 64 68 67
189.000000 -138.000000 26.800001 96 101 96
190.000000 -138.000000 28.400000 141 147 137
191.000000 -138.000000 30.400000 147 153 144
192.000000 -138.000000 31.600000 147 153 144
193.000000 -138.000000 32.000000 147 153 143
194.000000 -138.000000 32.400002 146 153 143
195.000000 -138.000000 32.799999 146 153 142
196.000000 -138.000000 32.799999 145 152 142
197.000000 -138.000000 33.200001 145 151 141
198.000000 -138.000000 33.600002 144 150 140
199.000000 -138.000000 33.600002 143 149 140
200.000000 -138.000000 33.600002 142 149 139
201.000000 -138.000000 34.000000 142 147 138
202.000000 -138.000000 34.000000 141 147 137
203.000000 -138.000000 34.000000 140 145 135
204.000000 -138.000000 34.000000 139 144 135
205.000000 -138.000000 34.000000 139 143 133
206.000000 -138.000000 34.799999 137 142 133
207.000000 -138.000000 34.799999 136 142 132
208.000000 -138.000000 35.200001 135 141 132
209.000000 -138.000000 36.000000 135 141 132
210.000000 -138.000000 36.000000 134 140 131
211.000000 -138.000000 35.200001 135 140 131
212.000000 -138.000000 35.200001 134 140 131
213.000000 -138.000000 36.000000 134 140 132
214.000000 -138.000000 36.400002 134 140 131
215.000000 -138.000000 36.400002 133 139 130
216.000000 -138.000000 36.400002 133 138 130
217.000000 -138.000000 36.400002 133 139 130
218.000000 -138.000000 36.400002 133 138 129
219.000000 -138.000000 36.799999 133 137 129
220.000000 -138.000000 36.799999 132 137 129
221.000000 -138.000000 36.799999 131 136 129
222.000000 -138.000000 36.799999 130 136 128
223.000000 -138.000000 37.200001 131 136 128
224.000000 -138.000000 37.600002 130 136 127
225.000000 -138.000000 37.600002 130 135 127
226.000000 -138.000000 38.000000 130 134 126
227.000000 -138.000000 38.400002 129 134 126
228.000000 -138.000000 38.400002 127 131 124
229.000000 -138.000000 38.400002 113 115 112
230.000000 -138.000000 38.799999 117 120 113
231.000000 -138.000000 39.200001 122 125 116
232.000000 -138.000000 39.200001 109 107 97
233.000000 -138.000000 39.600002 116 116 104
234.000000 -138.000000 40.000000 124 127 118
235.000000 -138.000000 40.400002 123 128 119
236.000000 -138.000000 40.400002 121 127 119
237.000000 -138.000000 40.400002 122 126 118
238.000000 -138.000000 40.400002 122 125 118
239.000000 -138.000000 40.400002 121 125 118
240.000000 -138.000000 41.200001 121 125 118
241.000000 -138.000000 41.600002 121 125 117
242.000000 -138.000000 42.400002 121 124 118
243.000000 -138.000000 42.000000 121 124 118
244.000000 -138.000000 40.400002 120 124 118
245.000000 -138.000000 39.200001 121 124 117
246.000000 -138.000000 39.200001 121 124 117
247.000000 -138.000000 39.200001 121 124 117
248.000000 -138.000000 41.200001 121 123 117
249.000000 -138.000000 42.400002 121 123 118
250.000000 -138.000000 43.200001 121 123 118
251.000000 -138.000000 42.799999 121 123 118
252.000000 -138.000000 40.000000 120 123 117
253.000000 -138.000000 40.000000 120 122 118
254.000000 -138.000000 40.400002 119 121 117
255.000000 -138.000000 42.799999 119 121 116
256.000000 -138.000000 44.000000 119 120 116
257.000000 -138.000000 44.400002 119 119 116
258.000000 -138.000000 44.400002 117 119 115
259.000000 -138.000000 43.600002 117 118 114
260.000000 -138.000000 43.600002 117 118 114
261.000000 -138.000000 44.000000 117 118 114
262.000000 -138.000000 44.400002 117 118 114
263.000000 -138.000000 44.799999 116 118 113
264.000000 -138.000000 44.799999 116 117 114
265.000000 -138.000000 44.799999 115 117 113
266.000000 -138.000000 44.799999 114 116 113
267.000000 -138.000000 44.799999 115 116 113
268.000000 -138.000000 45.200001 115 116 113
269.000000 -138.000000 45.200001 115 115 113
270.000000 -138.000000 45.600002 115 115 113
271.000000 -138.000000 46.000000 114 115 112
272.000000 -138.000000 46.799999 114 114 112
273.000000 -138.000000 46.799999 114 114 112
274.000000 -138.000000 47.200001 113 114 111
275.000000 -138.000000 46.799999 113 113 111
276.000000 -138.000000 46.000000 111 106 108
277.000000 -138.000000 46.000000 109 92 97
278.000000 -138.000000 46.799999 108 89 93
279.000000 -138.000000 47.600002 107 88 93
280.000000 -138.000000 48.799999 106 88 93
281.000000 -138.000000 48.799999 106 88 93
282.000000 -138.000000 48.000000 105 87 91
283.000000 -138.000000 48.000000 105 85 91
284.000000 -138.000000 47.600002 104 85 91
285.000000 -138.000000 47.600002 104 85 91
286.000000 -138.000000 47.600002 104 87 91
287.000000 -138.000000 48.000000 104 94 97
288.000000 -138.000000 48.000000 98 91 97
289.000000 -138.000000 48.000000 94 86 93
290.000000 -138.000000 48.000000 93 85 92
291.000000 -138.000000 47.600002 92 85 91
292.000000 -138.000000 46.000000 91 85 90
293.000000 -138.000000 45.600002 90 83 89
294.000000 -138.000000 45.200001 88 81 87
295.000000 -138.000000 44.799999 77 70 78
296.000000 -138.000000 44.799999 64 60 65
297.000000 -138.000000 44.400002 76 71 75
298.000000 -138.000000 44.000000 82 75 81
299.000000 -138.000000 44.000000 78 71 78
300.000000 -138.000000 44.000000 72 66 73
301.000000 -138.000000 44.000000 69 62 68
302.000000 -138.000000 43.600002 65 59 65
303.000000 -138.000000 43.600002 60 55 61
304.000000 -138.000000 43.600002 61 55 60
305.000000 -138.000000 43.200001 75 68 71
306.000000 -138.000000 42.799999 89 82 85
307.000000 -138.000000 42.799999 94 88 91
308.000000 -138.000000 42.799999 94 89 93
309.000000 -138.000000 41.200001 95 89 94
310.000000 -138.000000 41.200001 94 88 93
311.000000 -138.000000 40.799999 94 87 93
312.000000 -138.000000 40.799999 91 85 90
313.000000 -138.000000 40.000000 87 80 85
314.000000 -138.000000 40.000000 70 63 70
315.000000 -138.000000 40.400002 43 36 44
316.000000 -138.000000 40.000000 34 28 34
317.000000 -138.000000 -0.800000 24 21 25
318.000000 -138.000000 -0.800000 5 4 5
319.000000 -138.000000 -0.400000 0 0 0
320.000000 -138.000000 -0.400000 0 0 0
321.000000 -138.000000 -0.400000 0 0 0
322.000000 -138.000000 -0.400000 0 0 0
63.000000 -139.000000 26.800001 50 53 54
64.000000 -139.000000 30.000000 49 52 55
65.000000 -139.000000 30.000000 62 65 70
66.000000 -139.000000 30.000000 91 97 95
67.000000 -139.000000 30.400000 81 86 84
68.000000 -139.000000 30.800001 79 85 89
69.000000 -139.000000 28.400000 107 117 114
70.000000 -139.000000 27.600000 99 108 102
71.000000 -139.000000 26.800001 69 75 75
72.000000 -139.000000 26.400000 58 61 63
73.000000 -139.000000 26.400000 55 57 60
74.000000 -139.000000 -0.800000 55 58 60
75.000000 -139.000000 -0.400000 65 69 70
76.000000 -139.000000 -0.400000 84 89 87
77.000000 -139.000000 -0.400000 87 93 89
78.000000 -139.000000 -0.800000 77 81 80
79.000000 -139.000000 -6.400000 80 84 84
80.000000 -139.000000 -6.400000 100 105 104
81.000000 -139.000000 -6.400000 139 148 142
82.000000 -139.000000 -6.400000 168 177 161
83.000000 -139.000000 -6.400000 174 183 168
84.000000 -139.000000 -6.400000 185 198 179
85.000000 -139.000000 -6.400000 180 191 174
86.000000 -139.000000 -6.400000 185 198 179
87.000000 -139.000000 -6.400000 189 203 184
88.000000 -139.000000 -6.400000 190 204 185
89.000000 -139.000000 -6.400000 190 205 185
90.000000 -139.000000 -6.400000 191 205 186
91.000000 -139.000000 -6.400000 191 205 184
92.000000 -139.000000 -6.400000 174 187 166
93.000000 -139.000000 -6.400000 124 132 120
94.000000 -139.000000 -6.400000 91 96 93
95.000000 -139.000000 248.400009 83 88 86
96.000000 -139.000000 251.199997 77 82 81
97.000000 -139.000000 252.400009 72 76 76
98.000000 -139.000000 252.400009 69 72 73
107.000000 -139.000000 -6.400000 76 83 81
108.000000 -139.000000 -6.400000 74 78 82
109.000000 -139.000000 2.400000 86 91 101
110.000000 -139.000000 4.800000 99 109 117
111.000000 -139.000000 6.000000 100 112 120
112.000000 -139.000000 6.800000 105 115 124
113.000000 -139.000000 8.400001 128 136 138
114.000000 -139.000000 10.400001 120 130 135
115.000000 -139.000000 13.600000 107 120 130
116.000000 -139.000000 14.800000 114 127 136
117.000000 -139.000000 15.600000 140 148 147
118.000000 -139.000000 16.400000 152 157 147
119.000000 -139.000000 18.400000 150 155 143
120.000000 -139.000000 21.200001 148 154 143
121.000000 -139.000000 25.600000 146 151 140
122.000000 -139.000000 25.600000 142 147 138
124.000000 -139.000000 43.200001 135 143 134
125.000000 -139.000000 47.200001 131 139 131
126.000000 -139.000000 52.400002 112 119 114
127.000000 -139.000000 56.799999 91 95 95
128.000000 -139.000000 58.799999 84 87 89
129.000000 -139.000000 65.200005 82 85 86
130.000000 -139.000000 68.400002 81 84 84
131.000000 -139.000000 70.800003 81 84 85
132.000000 -139.000000 73.200005 92 96 96
133.000000 -139.000000 75.200005 100 106 104
134.000000 -139.000000 77.599998 104 110 107
135.000000 -139.000000 79.200005 96 99 97
136.000000 -139.000000 79.599998 80 81 83
137.000000 -139.000000 82.400002 72 73 74
138.000000 -139.000000 84.000000 66 67 69
139.000000 -139.000000 84.400002 61 62 64
140.000000 -139.000000 84.800003 58 57 61
141.000000 -139.000000 85.200005 56 55 59
142.000000 -139.000000 86.000000 55 54 57
143.000000 -139.000000 87.200005 53 53 56
144.000000 -139.000000 88.000000 53 53 56
145.000000 -139.000000 88.000000 54 53 56
146.000000 -139.000000 88.000000 53 52 56
147.000000 -139.000000 88.000000 50 50 54
148.000000 -139.000000 88.000000 50 49 53
149.000000 -139.000000 88.400002 51 50 54
150.000000 -139.000000 88.400002 53 53 56
151.000000 -139.000000 89.200005 60 59 62
152.000000 -139.000000 90.000000 72 72 70
153.000000 -139.000000 90.000000 72 72 69
154.000000 -139.000000 -0.400000 63 64 63
155.000000 -139.000000 -0.400000 69 70 69
156.000000 -139.000000 -0.400000 77 76 74
157.000000 -139.000000 -0.400000 67 68 66
158.000000 -139.000000 -0.400000 58 58 58
159.000000 -139.000000 -0.400000 56 54 55
160.000000 -139.000000 -0.400000 55 53 54
161.000000 -139.000000 -0.800000 54 52 53
162.000000 -139.000000 -0.800000 55 53 55
163.000000 -139.000000 -1.200000 58 57 58
164.000000 -139.000000 -0.800000 83 80 78
165.000000 -139.000000 0.000000 132 130 118
166.000000 -139.000000 0.000000 147 146 132
167.000000 -139.000000 0.400000 135 137 128
168.000000 -139.000000 0.800000 113 116 112
169.000000 -139.000000 2.000000 100 103 100
170.000000 -139.000000 4.000000 109 113 109
171.000000 -139.000000 4.800000 91 92 90
172.000000 -139.000000 6.000000 72 72 70
173.000000 -139.000000 6.800000 61 60 60
174.000000 -139.000000 6.400000 56 55 56
175.000000 -139.000000 6.400000 57 56 57
176.000000 -139.000000 6.400000 57 57 58
177.000000 -139.000000 6.400000 62 63 64
178.000000 -139.000000 6.400000 69 70 72
179.000000 -139.000000 6.400000 71 72 74
180.000000 -139.000000 6.400000 77 76 78
181.000000 -139.000000 6.800000 81 81 83
182.000000 -139.000000 7.200000 79 79 81
183.000000 -139.000000 7.600000 73 73 74
184.000000 -139.000000 8.400001 62 63 64
185.000000 -139.000000 11.600000 53 56 57
186.000000 -139.000000 14.400001 61 65 65
187.000000 -139.000000 24.000000 70 72 70
188.000000 -139.000000 25.600000 64 66 66
189.000000 -139.000000 26.800001 98 101 97
190.000000 -139.000000 28.400000 141 147 138
191.000000 -139.000000 30.400000 147 154 144
192.000000 -139.000000 31.200001 148 154 144
193.000000 -139.000000 32.000000 147 154 144
194.000000 -139.000000 32.400002 146 154 143
195.000000 -139.000000 32.799999 146 153 142
196.000000 -139.000000 32.799999 145 152 142
197.000000 -139.000000 33.200001 145 151 141
198.000000 -139.000000 33.600002 144 150 141
199.000000 -139.000000 33.600002 144 150 141
200.000000 -139.000000 33.600002 143 149 140
201.000000 -139.000000 34.000000 142 148 138
202.000000 -139.000000 34.000000 141 148 137
203.000000 -139.000000 34.000000 140 146 136
204.000000 -139.000000 33.600002 139 144 135
205.000000 -139.000000 33.600002 138 143 134
206.000000 -139.000000 34.000000 137 143 133
207.000000 -139.000000 34.799999 136 142 133
208.000000 -139.000000 36.000000 136 141 133
209.000000 -139.000000 36.000000 135 141 131
210.000000 -139.000000 36.400002 134 140 130
211.000000 -139.000000 35.200001 134 140 131
212.000000 -139.000000 35.200001 134 140 131
213.000000 -139.000000 35.200001 134 140 131
214.000000 -139.000000 36.400002 134 140 131
215.000000 -139.000000 36.400002 134 139 130
216.000000 -139.000000 36.400002 134 138 130
217.000000 -139.000000 36.400002 133 139 130
218.000000 -139.000000 36.400002 132 138 129
219.000000 -139.000000 36.400002 133 138 129
220.000000 -139.000000 36.799999 132 138 129
221.000000 -139.000000 36.799999 132 137 128
222.000000 -139.000000 36.799999 131 136 129
223.000000 -139.000000 36.799999 131 136 129
224.000000 -139.000000 37.600002 130 135 128
225.000000 -139.000000 37.600002 130 135 127
226.000000 -139.000000 38.000000 130 135 126
227.000000 -139.000000 38.400002 130 135 126
228.000000 -139.000000 38.400002 126 131 124
229.000000 -139.000000 38.400002 113 115 112
230.000000 -139.000000 38.799999 117 119 113
231.000000 -139.000000 39.200001 120 119 109
232.000000 -139.000000 39.200001 115 107 90
233.000000 -139.000000 39.600002 116 112 96
234.000000 -139.000000 39.600002 122 125 115
235.000000 -139.000000 40.400002 123 127 119
236.000000 -139.000000 40.400002 122 126 119
237.000000 -139.000000 40.400002 122 126 118
238.000000 -139.000000 40.400002 122 125 118
239.000000 -139.000000 40.400002 122 124 118
240.000000 -139.000000 40.799999 121 125 118
241.000000 -139.000000 41.200001 121 125 117
242.000000 -139.000000 42.000000 121 125 118
243.000000 -139.000000 42.000000 121 124 118
244.000000 -139.000000 40.400002 120 124 118
245.000000 -139.000000 39.600002 121 124 117
246.000000 -139.000000 39.200001 121 124 118
247.000000 -139.000000 39.200001 120 124 118
248.000000 -139.000000 40.799999 121 124 117
249.000000 -139.000000 41.200001 121 124 117
250.000000 -139.000000 41.200001 122 123 118
251.000000 -139.000000 40.799999 121 123 118
252.000000 -139.000000 39.200001 120 123 118
253.000000 -139.000000 39.200001 120 122 118
254.000000 -139.000000 40.000000 120 122 118
255.000000 -139.000000 42.400002 119 121 117
256.000000 -139.000000 44.000000 119 120 117
257.000000 -139.000000 44.400002 119 120 117
258.000000 -139.000000 44.400002 118 119 115
259.000000 -139.000000 43.600002 117 119 114
260.000000 -139.000000 43.600002 117 119 114
261.000000 -139.000000 43.600002 117 119 114
262.000000 -139.000000 44.000000 117 118 115
263.000000 -139.000000 44.799999 116 118 115
264.000000 -139.000000 44.799999 117 117 114
265.000000 -139.000000 44.799999 116 117 113
266.000000 -139.000000 44.799999 115 116 113
267.000000 -139.000000 44.799999 115 117 114
268.000000 -139.000000 45.200001 115 116 113
269.000000 -139.000000 45.200001 115 115 113
270.000000 -139.000000 45.600002 115 115 113
271.000000 -139.000000 46.400002 115 115 112
272.000000 -139.000000 47.200001 114 115 112
273.000000 -139.000000 47.200001 113 114 112
274.000000 -139.000000 47.200001 113 113 111
275.000000 -139.000000 47.200001 113 112 111
276.000000 -139.000000 47.200001 110 100 104
277.000000 -139.000000 47.200001 106 79 88
278.000000 -139.000000 47.600002 107 76 84
279.000000 -139.000000 48.799999 105 74 83
280.000000 -139.000000 49.600002 104 74 83
281.000000 -139.000000 49.200001 105 76 83
282.000000 -139.000000 48.799999 102 72 81
283.000000 -139.000000 48.799999 101 66 77
284.000000 -139.000000 48.799999 99 65 76
285.000000 -139.000000 48.799999 99 65 75
286.000000 -139.000000 48.799999 99 68 77
287.000000 -139.000000 48.799999 101 85 89
288.000000 -139.000000 48.799999 97 90 95
289.000000 -139.000000 48.400002 94 86 92
290.000000 -139.000000 48.000000 93 85 91
291.000000 -139.000000 47.200001 91 85 91
292.000000 -139.000000 46.000000 91 84 90
293.000000 -139.000000 45.200001 90 83 89
294.000000 -139.000000 45.200001 88 81 87
295.000000 -139.000000 44.799999 76 70 78
296.000000 -139.000000 44.799999 64 60 65
297.000000 -139.000000 44.400002 76 71 75
298.000000 -139.000000 44.000000 82 76 82
299.000000 -139.000000 44.000000 78 71 78
300.000000 -139.000000 44.000000 72 66 73
301.000000 -139.000000 44.000000 68 62 68
302.000000 -139.000000 44.000000 63 59 64
303.000000 -139.000000 43.600002 59 54 60
304.000000 -139.000000 43.600002 60 55 60
305.000000 -139.000000 43.200001 74 69 71
306.000000 -139.000000 43.200001 89 83 85
307.000000 -139.000000 43.200001 94 88 91
308.000000 -139.000000 43.200001 95 88 93
309.000000 -139.000000 41.200001 95 88 93
310.000000 -139.000000 41.200001 94 87 93
311.000000 -139.000000 40.799999 93 86 93
312.000000 -139.000000 40.799999 90 84 89
313.000000 -139.000000 40.400002 86 79 84
314.000000 -139.000000 40.400002 72 65 72
315.000000 -139.000000 40.400002 44 38 46
316.000000 -139.000000 40.400002 34 28 34
317.000000 -139.000000 -0.800000 26 22 26
318.000000 -139.000000 -0.800000 6 5 6
319.000000 -139.000000 -0.400000 0 0 0
320.000000 -139.000000 -0.400000 0 0 0
321.000000 -139.000000 -0.400000 0 0 0
322.000000 -139.000000 -0.400000 0 0 0
63.000000 -140.000000 27.200001 50 53 55
64.000000 -140.000000 30.000000 56 61 65
65.000000 -140.000000 30.000000 85 91 93
66.000000 -140.000000 30.000000 104 111 106
67.000000 -140.000000 30.400000 89 96 94
68.000000 -140.000000 30.800001 90 96 95
69.000000 -140.000000 28.400000 82 87 84
70.000000 -140.000000 27.600000 64 69 69
71.000000 -140.000000 26.800001 57 61 62
72.000000 -140.000000 26.400000 54 56 58
73.000000 -140.000000 26.400000 54 57 59
74.000000 -140.000000 25.600000 65 69 70
75.000000 -140.000000 -0.400000 84 90 87
76.000000 -140.000000 -0.400000 82 87 84
77.000000 -140.000000 -0.400000 67 71 71
78.000000 -140.000000 -1.200000 61 64 66
79.000000 -140.000000 -6.400000 62 66 68
80.000000 -140.000000 -6.400000 89 94 97
81.000000 -140.000000 -6.400000 122 132 127
82.000000 -140.000000 -6.400000 140 148 140
83.000000 -140.000000 -6.400000 169 177 164
84.000000 -140.000000 -6.400000 185 198 179
85.000000 -140.000000 -6.400000 180 193 174
86.000000 -140.000000 -6.400000 185 198 180
87.000000 -140.000000 -6.400000 190 203 184
88.000000 -140.000000 -6.400000 190 204 185
89.000000 -140.000000 -6.400000 190 204 185
90.000000 -140.000000 -6.400000 190 204 184
91.000000 -140.000000 -6.400000 184 198 176
92.000000 -140.000000 -6.400000 142 150 136
93.000000 -140.000000 -6.400000 92 96 94
94.000000 -140.000000 245.600006 79 83 83
95.000000 -140.000000 248.400009 79 84 82
96.000000 -140.000000 250.800003 75 81 80
97.000000 -140.000000 251.199997 73 78 77
98.000000 -140.000000 251.600006 71 75 76
106.000000 -140.000000 -6.400000 109 118 113
107.000000 -140.000000 4.000000 113 123 116
108.000000 -140.000000 4.400000 99 106 101
109.000000 -140.000000 5.600000 84 88 91
110.000000 -140.000000 6.400000 82 87 90
111.000000 -140.000000 7.200000 83 89 89
112.000000 -140.000000 8.400001 84 91 91
113.000000 -140.000000 9.200000 93 99 99
114.000000 -140.000000 11.600000 97 104 105
115.000000 -140.000000 14.400001 98 108 111
116.000000 -140.000000 15.200000 108 119 126
117.000000 -140.000000 16.400000 137 147 145
118.000000 -140.000000 18.000000 154 159 148
119.000000 -140.000000 19.200001 151 155 143
120.000000 -140.000000 21.200001 148 153 141
121.000000 -140.000000 25.600000 146 150 138
122.000000 -140.000000 25.600000 141 146 136
123.000000 -140.000000 27.200001 135 141 132
125.000000 -140.000000 44.000000 127 135 127
126.000000 -140.000000 47.200001 106 112 108
127.000000 -140.000000 52.400002 89 92 93
128.000000 -140.000000 60.000000 83 86 87
129.000000 -140.000000 67.200005 81 84 85
130.000000 -140.000000 70.400002 81 83 84
131.000000 -140.000000 72.000000 82 85 87
132.000000 -140.000000 73.599998 93 98 98
133.000000 -140.000000 76.000000 102 107 105
134.000000 -140.000000 78.000000 105 112 108
135.000000 -140.000000 79.200005 92 96 95
136.000000 -140.000000 79.599998 78 80 80
137.000000 -140.000000 82.400002 70 70 73
138.000000 -140.000000 84.000000 64 64 67
139.000000 -140.000000 84.400002 60 60 63
140.000000 -140.000000 85.200005 57 56 60
141.000000 -140.000000 85.200005 55 55 58
142.000000 -140.000000 86.000000 54 53 56
143.000000 -140.000000 87.200005 52 51 55
144.000000 -140.000000 88.000000 53 52 56
145.000000 -140.000000 88.000000 54 52 56
146.000000 -140.000000 88.000000 52 51 55
147.000000 -140.000000 87.599998 50 49 53
148.000000 -140.000000 88.000000 50 48 53
149.000000 -140.000000 88.000000 51 50 54
150.000000 -140.000000 88.400002 55 53 57
151.000000 -140.000000 89.200005 60 60 62
152.000000 -140.000000 89.200005 68 68 67
153.000000 -140.000000 -0.400000 63 64 63
154.000000 -140.000000 -0.400000 59 62 61
155.000000 -140.000000 -0.400000 68 70 69
156.000000 -140.000000 -0.400000 69 70 69
157.000000 -140.000000 -0.400000 57 59 59
158.000000 -140.000000 -0.800000 54 56 57
159.000000 -140.000000 -0.800000 53 54 55
160.000000 -140.000000 -0.800000 52 53 54
161.000000 -140.000000 -0.800000 53 53 54
162.000000 -140.000000 -0.800000 59 59 59
163.000000 -140.000000 -0.800000 73 72 71
164.000000 -140.000000 -0.400000 99 99 94
165.000000 -140.000000 0.000000 138 138 126
166.000000 -140.000000 0.000000 149 148 135
167.000000 -140.000000 0.400000 139 139 128
168.000000 -140.000000 0.400000 111 110 104
169.000000 -140.000000 1.200000 90 90 86
170.000000 -140.000000 2.800000 92 93 89
171.000000 -140.000000 4.000000 77 75 73
172.000000 -140.000000 4.800000 65 61 61
173.000000 -140.000000 4.800000 60 56 56
174.000000 -140.000000 4.800000 56 53 54
175.000000 -140.000000 5.200000 55 51 53
176.000000 -140.000000 5.200000 54 51 53
177.000000 -140.000000 5.200000 54 54 56
178.000000 -140.000000 5.600000 63 61 66
179.000000 -140.000000 6.400000 68 65 72
180.000000 -140.000000 6.400000 70 67 74
181.000000 -140.000000 6.400000 71 68 75
182.000000 -140.000000 7.200000 71 68 75
183.000000 -140.000000 8.000000 70 68 72
184.000000 -140.000000 8.400001 71 71 71
185.000000 -140.000000 12.000000 66 68 68
186.000000 -140.000000 14.000000 65 67 68
187.000000 -140.000000 23.600000 72 73 71
188.000000 -140.000000 25.600000 77 79 76
189.000000 -140.000000 27.600000 106 111 104
190.000000 -140.000000 30.000000 141 147 137
191.000000 -140.000000 30.400000 146 152 143
192.000000 -140.000000 31.600000 147 153 143
193.000000 -140.000000 32.000000 147 153 143
194.000000 -140.000000 32.400002 146 153 142
195.000000 -140.000000 32.400002 146 152 142
196.000000 -140.000000 32.799999 145 152 142
197.000000 -140.000000 32.799999 145 151 141
198.000000 -140.000000 32.799999 144 150 141
199.000000 -140.000000 32.400002 144 150 141
200.000000 -140.000000 32.400002 142 150 139
201.000000 -140.000000 32.000000 141 149 138
202.000000 -140.000000 32.000000 141 148 137
203.000000 -140.000000 32.000000 140 146 137
204.000000 -140.000000 32.000000 139 145 136
205.000000 -140.000000 32.000000 138 144 135
206.000000 -140.000000 33.600002 137 143 134
207.000000 -140.000000 34.400002 136 143 133
208.000000 -140.000000 35.200001 136 142 133
209.000000 -140.000000 36.000000 135 141 132
210.000000 -140.000000 36.400002 135 140 131
211.000000 -140.000000 35.200001 134 140 130
212.000000 -140.000000 35.200001 134 140 131
213.000000 -140.000000 35.200001 134 140 131
214.000000 -140.000000 35.200001 133 140 131
215.000000 -140.000000 34.799999 134 140 130
216.000000 -140.000000 34.799999 134 139 130
217.000000 -140.000000 35.600002 133 138 130
218.000000 -140.000000 35.600002 133 138 129
219.000000 -140.000000 36.400002 133 138 129
220.000000 -140.000000 36.799999 133 138 129
221.000000 -140.000000 36.400002 132 137 128
222.000000 -140.000000 36.400002 131 136 128
223.000000 -140.000000 36.400002 130 135 128
224.000000 -140.000000 37.600002 130 135 128
225.000000 -140.000000 37.600002 130 135 127
226.000000 -140.000000 38.000000 130 135 127
227.000000 -140.000000 38.400002 129 135 127
228.000000 -140.000000 38.400002 126 131 125
229.000000 -140.000000 38.400002 112 115 112
230.000000 -140.000000 38.799999 115 117 110
231.000000 -140.000000 39.200001 118 115 101
232.000000 -140.000000 39.200001 122 111 87
233.000000 -140.000000 39.600002 118 111 91
234.000000 -140.000000 40.000000 120 121 109
235.000000 -140.000000 40.400002 122 126 117
236.000000 -140.000000 40.400002 122 126 118
237.000000 -140.000000 40.400002 122 126 118
238.000000 -140.000000 40.400002 122 125 119
239.000000 -140.000000 40.799999 122 125 118
240.000000 -140.000000 40.799999 122 125 118
241.000000 -140.000000 41.200001 121 125 118
242.000000 -140.000000 42.000000 121 125 118
243.000000 -140.000000 42.000000 121 124 118
244.000000 -140.000000 40.799999 121 124 118
245.000000 -140.000000 40.000000 121 124 117
246.000000 -140.000000 39.200001 121 124 118
247.000000 -140.000000 39.200001 120 124 118
248.000000 -140.000000 40.799999 121 124 118
249.000000 -140.000000 41.200001 121 124 118
250.000000 -140.000000 40.799999 122 123 118
251.000000 -140.000000 40.799999 121 123 118
252.000000 -140.000000 38.400002 120 123 118
253.000000 -140.000000 38.400002 120 122 118
254.000000 -140.000000 39.600002 120 122 117
255.000000 -140.000000 41.200001 120 122 117
256.000000 -140.000000 43.600002 120 121 117
257.000000 -140.000000 44.400002 119 121 117
258.000000 -140.000000 44.400002 119 120 116
259.000000 -140.000000 44.400002 118 120 115
260.000000 -140.000000 43.600002 118 119 115
261.000000 -140.000000 43.600002 118 119 115
262.000000 -140.000000 44.000000 117 119 115
263.000000 -140.000000 44.400002 117 118 114
264.000000 -140.000000 44.799999 116 117 114
265.000000 -140.000000 44.799999 117 117 114
266.000000 -140.000000 44.799999 116 117 114
267.000000 -140.000000 44.799999 116 117 114
268.000000 -140.000000 45.200001 116 116 113
269.000000 -140.000000 45.600002 116 116 113
270.000000 -140.000000 45.600002 116 116 112
271.000000 -140.000000 46.400002 115 115 112
272.000000 -140.000000 47.200001 114 114 111
273.000000 -140.000000 47.200001 114 114 111
274.000000 -140.000000 47.200001 113 113 111
275.000000 -140.000000 47.600002 113 112 111
276.000000 -140.000000 47.600002 111 100 104
277.000000 -140.000000 47.600002 106 77 86
278.000000 -140.000000 48.799999 106 73 82
279.000000 -140.000000 49.600002 105 71 80
280.000000 -140.000000 50.000000 105 71 79
281.000000 -140.000000 50.000000 105 73 80
282.000000 -140.000000 49.600002 104 71 80
283.000000 -140.000000 49.200001 102 67 78
284.000000 -140.000000 49.200001 100 64 74
285.000000 -140.000000 49.200001 98 63 72
286.000000 -140.000000 49.200001 98 66 74
287.000000 -140.000000 49.200001 101 85 88
288.000000 -140.000000 49.200001 96 90 94
289.000000 -140.000000 48.799999 93 87 92
290.000000 -140.000000 48.400002 92 85 92
291.000000 -140.000000 46.799999 91 85 91
292.000000 -140.000000 45.600002 90 84 90
293.000000 -140.000000 45.200001 89 83 89
294.000000 -140.000000 44.799999 88 81 88
295.000000 -140.000000 44.799999 76 70 78
296.000000 -140.000000 44.799999 64 60 66
297.000000 -140.000000 44.400002 76 70 75
298.000000 -140.000000 44.000000 82 75 82
299.000000 -140.000000 44.000000 78 71 78
300.000000 -140.000000 44.000000 72 66 72
301.000000 -140.000000 44.000000 68 62 68
302.000000 -140.000000 44.000000 63 59 64
303.000000 -140.000000 44.000000 59 54 59
304.000000 -140.000000 43.600002 60 55 60
305.000000 -140.000000 43.600002 74 69 71
306.000000 -140.000000 43.200001 89 82 85
307.000000 -140.000000 43.200001 94 88 91
308.000000 -140.000000 43.200001 95 89 92
309.000000 -140.000000 41.200001 95 88 92
310.000000 -140.000000 41.200001 93 87 92
311.000000 -140.000000 40.799999 92 85 92
312.000000 -140.000000 40.799999 89 83 89
313.000000 -140.000000 40.400002 85 79 84
314.000000 -140.000000 40.400002 73 67 75
315.000000 -140.000000 40.799999 46 40 49
316.000000 -140.000000 40.799999 34 29 35
317.000000 -140.000000 -0.400000 26 22 26
318.000000 -140.000000 -0.400000 6 5 6
319.000000 -140.000000 -0.400000 0 0 0
320.000000 -140.000000 -0.400000 0 0 0
321.000000 -140.000000 0.000000 0 0 0
322.000000 -140.000000 0.000000 0 0 0
63.000000 -141.000000 24.400000 58 61 64
64.000000 -141.000000 26.800001 79 84 85
65.000000 -141.000000 26.800001 98 104 100
66.000000 -141.000000 26.800001 89 95 91
67.000000 -141.000000 27.200001 76 81 79
68.000000 -141.000000 27.200001 65 69 69
69.000000 -141.000000 26.400000 59 62 63
70.000000 -141.000000 26.400000 61 64 65
71.000000 -141.000000 26.400000 60 64 65
72.000000 -141.000000 25.600000 57 61 63
73.000000 -141.000000 25.600000 65 70 72
74.000000 -141.000000 20.400000 77 83 81
75.000000 -141.000000 14.400001 74 80 78
76.000000 -141.000000 0.000000 62 67 67
77.000000 -141.000000 0.000000 58 62 63
78.000000 -141.000000 -1.200000 62 65 68
79.000000 -141.000000 -6.400000 79 84 86
80.000000 -141.000000 -6.400000 107 117 113
81.000000 -141.000000 -6.400000 105 114 109
82.000000 -141.000000 -6.400000 121 128 125
83.000000 -141.000000 -6.400000 167 174 162
84.000000 -141.000000 -6.400000 186 198 179
85.000000 -141.000000 -6.400000 185 197 178
86.000000 -141.000000 -6.400000 187 199 180
87.000000 -141.000000 -6.400000 189 202 182
88.000000 -141.000000 -6.400000 189 202 181
89.000000 -141.000000 -6.400000 189 201 181
90.000000 -141.000000 -6.400000 187 200 181
91.000000 -141.000000 -6.400000 168 180 161
92.000000 -141.000000 -6.400000 111 116 110
93.000000 -141.000000 -6.400000 80 84 83
94.000000 -141.000000 -6.400000 76 81 80
95.000000 -141.000000 247.199997 77 82 80
96.000000 -141.000000 249.600006 75 80 79
97.000000 -141.000000 251.199997 73 78 78
98.000000 -141.000000 251.600006 77 82 82
99.000000 -141.000000 -6.400000 91 97 96
100.000000 -141.000000 -6.400000 99 105 103
106.000000 -141.000000 4.000000 110 119 116
107.000000 -141.000000 4.400000 111 122 115
108.000000 -141.000000 5.600000 96 102 98
109.000000 -141.000000 6.400000 86 89 87
110.000000 -141.000000 7.200000 73 75 76
111.000000 -141.000000 7.200000 70 74 74
112.000000 -141.000000 8.400001 73 78 77
113.000000 -141.000000 9.200000 79 83 82
114.000000 -141.000000 11.600000 83 89 87
115.000000 -141.000000 14.400001 86 92 90
116.000000 -141.000000 15.600000 94 101 102
117.000000 -141.000000 17.200001 125 129 126
118.000000 -141.000000 18.400000 150 152 140
119.000000 -141.000000 19.600000 149 149 137
120.000000 -141.000000 21.200001 144 144 132
121.000000 -141.000000 24.800001 141 142 129
122.000000 -141.000000 24.800001 138 140 128
128.000000 -141.000000 63.200001 82 85 86
129.000000 -141.000000 67.599998 81 83 84
130.000000 -141.000000 70.400002 81 83 84
131.000000 -141.000000 72.400002 83 86 87
132.000000 -141.000000 74.000000 95 99 98
133.000000 -141.000000 76.800003 103 109 106
134.000000 -141.000000 78.400002 103 109 106
135.000000 -141.000000 79.599998 87 91 90
136.000000 -141.000000 79.599998 75 77 78
137.000000 -141.000000 82.800003 68 69 71
138.000000 -141.000000 84.000000 63 64 65
139.000000 -141.000000 84.400002 60 60 62
140.000000 -141.000000 85.200005 57 56 59
141.000000 -141.000000 85.200005 55 54 57
142.000000 -141.000000 86.000000 53 52 56
143.000000 -141.000000 87.200005 52 51 55
144.000000 -141.000000 88.000000 53 52 56
145.000000 -141.000000 88.000000 54 52 55
146.000000 -141.000000 88.000000 52 50 54
147.000000 -141.000000 87.599998 50 49 53
148.000000 -141.000000 87.599998 50 49 54
149.000000 -141.000000 88.000000 52 51 55
150.000000 -141.000000 88.400002 56 55 58
151.000000 -141.000000 89.200005 59 58 60
152.000000 -141.000000 89.200005 57 57 59
153.000000 -141.000000 -0.400000 55 56 58
154.000000 -141.000000 -0.800000 59 62 62
155.000000 -141.000000 -0.800000 65 68 67
156.000000 -141.000000 -0.800000 61 63 63
157.000000 -141.000000 -0.800000 55 57 57
158.000000 -141.000000 -0.800000 54 56 57
159.000000 -141.000000 -1.200000 55 55 56
160.000000 -141.000000 -1.200000 57 58 58
161.000000 -141.000000 -1.200000 63 63 63
162.000000 -141.000000 -0.800000 82 81 79
163.000000 -141.000000 -0.800000 115 113 106
164.000000 -141.000000 0.000000 131 130 120
165.000000 -141.000000 0.000000 142 140 128
166.000000 -141.000000 0.400000 145 143 130
167.000000 -141.000000 0.400000 140 137 125
168.000000 -141.000000 0.800000 118 115 106
169.000000 -141.000000 1.200000 92 89 84
170.000000 -141.000000 2.400000 85 80 76
171.000000 -141.000000 2.800000 74 68 66
172.000000 -141.000000 2.800000 65 60 59
173.000000 -141.000000 2.800000 64 59 58
174.000000 -141.000000 3.200000 60 56 56
175.000000 -141.000000 3.200000 58 54 55
176.000000 -141.000000 4.000000 55 52 54
177.000000 -141.000000 4.400000 54 53 56
178.000000 -141.000000 4.800000 60 58 63
179.000000 -141.000000 5.600000 65 61 68
180.000000 -141.000000 6.400000 67 63 71
181.000000 -141.000000 6.400000 70 67 75
182.000000 -141.000000 7.600000 73 71 78
183.000000 -141.000000 8.400001 72 71 75
184.000000 -141.000000 8.800000 76 75 74
185.000000 -141.000000 12.000000 67 67 67
186.000000 -141.000000 12.000000 63 65 64
187.000000 -141.000000 22.000000 71 74 71
188.000000 -141.000000 26.400000 78 80 78
189.000000 -141.000000 29.200001 89 91 88
190.000000 -141.000000 30.400000 111 116 110
191.000000 -141.000000 31.600000 117 122 117
192.000000 -141.000000 32.000000 122 126 120
193.000000 -141.000000 32.000000 125 129 122
194.000000 -141.000000 32.400002 126 132 125
195.000000 -141.000000 32.400002 129 134 127
196.000000 -141.000000 32.799999 131 136 128
197.000000 -141.000000 32.799999 132 138 129
198.000000 -141.000000 32.400002 134 139 131
199.000000 -141.000000 32.000000 136 140 133
200.000000 -141.000000 32.000000 136 143 133
201.000000 -141.000000 32.000000 135 142 133
202.000000 -141.000000 31.200001 135 142 132
203.000000 -141.000000 31.200001 136 142 132
204.000000 -141.000000 31.200001 135 142 132
205.000000 -141.000000 31.600000 135 141 132
206.000000 -141.000000 32.000000 136 142 131
207.000000 -141.000000 33.200001 135 142 131
208.000000 -141.000000 34.000000 135 141 132
209.000000 -141.000000 34.799999 135 141 131
210.000000 -141.000000 34.799999 134 141 131
211.000000 -141.000000 34.000000 134 141 131
212.000000 -141.000000 34.000000 134 141 131
213.000000 -141.000000 34.000000 134 141 130
214.000000 -141.000000 34.000000 134 141 131
215.000000 -141.000000 34.000000 134 140 131
216.000000 -141.000000 34.000000 133 139 130
217.000000 -141.000000 34.000000 133 139 129
218.000000 -141.000000 34.799999 133 138 130
219.000000 -141.000000 35.600002 133 138 130
220.000000 -141.000000 36.400002 133 137 129
221.000000 -141.000000 36.400002 131 137 129
222.000000 -141.000000 36.400002 131 136 128
