ply
        format ascii 1.0
        element vertex 56724
        property float x
        property float y
        property float z
        property uchar red
        property uchar green
        property uchar blue
        end_header
170.000000 -210.000000 60.647999 103 93 87
171.000000 -210.000000 60.647999 105 94 89
176.000000 -210.000000 -3.192000 82 75 70
177.000000 -210.000000 -3.192000 76 70 66
178.000000 -210.000000 -3.192000 90 81 76
179.000000 -210.000000 -3.192000 95 85 79
180.000000 -210.000000 -3.192000 89 81 75
181.000000 -210.000000 -3.192000 91 82 77
182.000000 -210.000000 -3.192000 108 96 90
183.000000 -210.000000 -3.192000 112 99 93
184.000000 -210.000000 -3.192000 113 100 94
185.000000 -210.000000 -3.192000 113 101 94
186.000000 -210.000000 -3.192000 110 104 95
187.000000 -210.000000 -3.192000 106 102 91
188.000000 -210.000000 61.445999 104 101 90
189.000000 -210.000000 61.844997 106 102 91
190.000000 -210.000000 61.844997 109 105 95
191.000000 -210.000000 61.844997 111 108 98
192.000000 -210.000000 61.445999 115 111 100
193.000000 -210.000000 61.445999 121 116 105
194.000000 -210.000000 61.445999 118 109 101
195.000000 -210.000000 61.246498 109 97 91
199.000000 -210.000000 -3.192000 100 90 84
205.000000 -210.000000 -3.192000 88 85 80
206.000000 -210.000000 -3.192000 89 86 80
207.000000 -210.000000 -3.192000 89 86 80
208.000000 -210.000000 -3.192000 89 88 81
210.000000 -210.000000 -3.192000 94 90 83
211.000000 -210.000000 60.448498 88 85 78
212.000000 -210.000000 60.647999 96 92 84
213.000000 -210.000000 60.647999 103 100 92
214.000000 -210.000000 60.647999 97 94 87
215.000000 -210.000000 60.647999 95 92 86
216.000000 -210.000000 60.647999 97 94 87
217.000000 -210.000000 60.847500 97 95 87
218.000000 -210.000000 60.847500 97 95 88
219.000000 -210.000000 59.849998 98 95 88
220.000000 -210.000000 58.453499 98 94 86
221.000000 -210.000000 57.855000 98 94 86
222.000000 -210.000000 58.054497 99 95 87
223.000000 -210.000000 58.253998 100 96 88
224.000000 -210.000000 58.253998 100 96 89
230.000000 -210.000000 57.455997 100 96 88
231.000000 -210.000000 57.455997 100 97 89
232.000000 -210.000000 57.455997 100 98 90
233.000000 -210.000000 57.455997 104 100 92
234.000000 -210.000000 57.455997 108 103 93
235.000000 -210.000000 57.455997 102 98 89
236.000000 -210.000000 57.655499 98 96 85
237.000000 -210.000000 57.655499 99 97 86
238.000000 -210.000000 58.054497 100 99 88
239.000000 -210.000000 58.054497 102 99 89
240.000000 -210.000000 57.655499 103 100 90
241.000000 -210.000000 57.455997 106 102 92
242.000000 -210.000000 57.256500 107 103 94
243.000000 -210.000000 56.857498 101 97 90
244.000000 -210.000000 56.258999 99 96 88
245.000000 -210.000000 56.258999 100 96 89
246.000000 -210.000000 56.258999 101 97 90
247.000000 -210.000000 56.258999 101 97 90
248.000000 -210.000000 56.258999 101 97 90
249.000000 -210.000000 56.657997 101 97 89
250.000000 -210.000000 57.256500 100 97 90
251.000000 -210.000000 57.455997 100 97 89
252.000000 -210.000000 57.455997 100 96 89
253.000000 -210.000000 57.655499 99 96 89
254.000000 -210.000000 58.054497 99 96 90
255.000000 -210.000000 58.054497 99 96 90
256.000000 -210.000000 57.455997 99 95 90
257.000000 -210.000000 55.660500 99 95 89
258.000000 -210.000000 55.261497 100 96 89
259.000000 -210.000000 55.062000 100 97 88
260.000000 -210.000000 54.662998 99 97 88
261.000000 -210.000000 54.463497 103 99 91
262.000000 -210.000000 54.264000 100 96 89
263.000000 -210.000000 54.264000 96 94 87
264.000000 -210.000000 53.864998 96 92 86
265.000000 -210.000000 53.665497 96 92 86
266.000000 -210.000000 52.867500 96 92 86
267.000000 -210.000000 52.468498 95 91 85
268.000000 -210.000000 52.468498 94 90 84
269.000000 -210.000000 53.066998 94 91 83
270.000000 -210.000000 53.864998 94 90 84
271.000000 -210.000000 53.864998 93 90 84
272.000000 -210.000000 53.864998 93 91 85
273.000000 -210.000000 53.864998 93 90 84
274.000000 -210.000000 53.864998 94 90 84
275.000000 -210.000000 53.864998 93 90 84
276.000000 -210.000000 52.867500 92 90 85
277.000000 -210.000000 51.869999 92 90 85
278.000000 -210.000000 51.470997 92 90 84
279.000000 -210.000000 51.271500 91 90 83
280.000000 -210.000000 51.071999 95 91 84
281.000000 -210.000000 50.872498 101 97 88
282.000000 -210.000000 50.872498 98 94 86
283.000000 -210.000000 50.673000 95 92 85
284.000000 -210.000000 50.273998 95 92 85
285.000000 -210.000000 50.273998 95 93 85
286.000000 -210.000000 48.877499 96 93 85
287.000000 -210.000000 48.478500 95 91 85
288.000000 -210.000000 48.278999 94 90 84
289.000000 -210.000000 48.079498 90 87 81
290.000000 -210.000000 47.879997 88 84 79
291.000000 -210.000000 47.879997 88 84 80
292.000000 -210.000000 48.079498 87 84 79
293.000000 -210.000000 47.879997 86 84 79
294.000000 -210.000000 48.079498 86 83 78
295.000000 -210.000000 48.079498 86 83 77
296.000000 -210.000000 48.278999 87 84 78
297.000000 -210.000000 48.478500 87 84 79
298.000000 -210.000000 48.278999 87 84 78
299.000000 -210.000000 48.478500 87 83 78
300.000000 -210.000000 48.278999 86 82 77
301.000000 -210.000000 48.079498 82 79 74
302.000000 -210.000000 47.879997 76 72 69
303.000000 -210.000000 47.480999 74 70 67
304.000000 -210.000000 47.081997 85 81 75
305.000000 -210.000000 -3.192000 89 86 80
306.000000 -210.000000 -3.192000 85 81 77
307.000000 -210.000000 -3.192000 63 60 59
308.000000 -210.000000 -3.192000 45 42 43
309.000000 -210.000000 -3.192000 46 44 44
310.000000 -210.000000 -3.192000 65 63 59
311.000000 -210.000000 -3.192000 102 101 92
312.000000 -210.000000 -3.192000 123 122 112
313.000000 -210.000000 -3.192000 123 122 113
314.000000 -210.000000 -3.192000 103 102 97
315.000000 -210.000000 -3.192000 92 91 85
316.000000 -210.000000 -0.798000 88 87 82
317.000000 -210.000000 -0.598500 82 81 77
318.000000 -210.000000 -0.598500 78 78 73
319.000000 -210.000000 -0.399000 78 78 74
320.000000 -210.000000 -0.199500 73 74 70
321.000000 -210.000000 0.000000 28 28 26
322.000000 -210.000000 0.000000 1 1 1
63.000000 -211.000000 0.000000 105 102 94
64.000000 -211.000000 0.399000 105 103 95
65.000000 -211.000000 0.399000 105 103 95
66.000000 -211.000000 0.598500 104 103 93
67.000000 -211.000000 0.997500 104 101 92
68.000000 -211.000000 1.396500 105 102 94
69.000000 -211.000000 3.591000 107 103 95
70.000000 -211.000000 3.591000 107 104 97
75.000000 -211.000000 55.062000 104 101 92
76.000000 -211.000000 55.660500 111 108 99
77.000000 -211.000000 56.657997 118 116 106
78.000000 -211.000000 56.657997 113 110 101
79.000000 -211.000000 56.657997 111 109 99
80.000000 -211.000000 56.258999 110 109 99
86.000000 -211.000000 56.059498 111 109 100
87.000000 -211.000000 56.458500 112 110 100
88.000000 -211.000000 57.256500 112 110 101
89.000000 -211.000000 57.455997 112 111 101
90.000000 -211.000000 57.455997 113 111 101
91.000000 -211.000000 57.455997 114 112 102
92.000000 -211.000000 57.455997 111 109 99
93.000000 -211.000000 57.455997 105 102 92
94.000000 -211.000000 57.455997 104 101 91
95.000000 -211.000000 57.455997 106 104 93
96.000000 -211.000000 57.455997 109 106 95
97.000000 -211.000000 57.455997 112 109 98
98.000000 -211.000000 57.455997 115 112 102
99.000000 -211.000000 57.455997 124 121 111
100.000000 -211.000000 57.455997 131 129 117
101.000000 -211.000000 57.455997 120 119 108
102.000000 -211.000000 57.455997 113 113 102
103.000000 -211.000000 57.855000 113 112 101
104.000000 -211.000000 57.855000 113 111 101
105.000000 -211.000000 58.054497 113 111 101
106.000000 -211.000000 58.253998 114 112 102
107.000000 -211.000000 58.253998 114 112 101
108.000000 -211.000000 58.453499 113 111 101
109.000000 -211.000000 58.653000 113 111 101
110.000000 -211.000000 58.653000 113 111 101
111.000000 -211.000000 -3.192000 114 111 101
112.000000 -211.000000 -3.192000 114 111 102
113.000000 -211.000000 58.852497 114 111 102
114.000000 -211.000000 59.451000 114 111 102
115.000000 -211.000000 59.451000 113 111 101
116.000000 -211.000000 59.451000 111 109 100
117.000000 -211.000000 59.650497 111 108 99
118.000000 -211.000000 59.849998 111 107 98
119.000000 -211.000000 60.049500 108 106 95
120.000000 -211.000000 60.049500 113 110 99
121.000000 -211.000000 60.049500 122 118 107
122.000000 -211.000000 60.248997 116 113 102
123.000000 -211.000000 60.049500 110 107 97
124.000000 -211.000000 60.049500 108 105 96
125.000000 -211.000000 60.049500 109 106 97
126.000000 -211.000000 60.248997 109 107 97
127.000000 -211.000000 60.448498 110 108 98
128.000000 -211.000000 61.046997 112 110 100
129.000000 -211.000000 61.246498 113 112 103
130.000000 -211.000000 61.645500 115 114 103
131.000000 -211.000000 61.445999 116 114 104
132.000000 -211.000000 60.847500 116 114 104
133.000000 -211.000000 60.647999 117 114 105
134.000000 -211.000000 60.647999 117 114 104
135.000000 -211.000000 60.647999 117 114 104
136.000000 -211.000000 61.246498 116 114 104
137.000000 -211.000000 61.445999 116 114 105
138.000000 -211.000000 61.445999 116 114 104
139.000000 -211.000000 61.445999 113 110 99
140.000000 -211.000000 61.246498 106 102 93
141.000000 -211.000000 61.246498 103 100 90
142.000000 -211.000000 61.445999 105 102 91
143.000000 -211.000000 61.645500 107 104 93
144.000000 -211.000000 61.645500 109 106 94
145.000000 -211.000000 61.246498 112 109 97
146.000000 -211.000000 61.246498 119 116 105
147.000000 -211.000000 61.246498 125 123 112
148.000000 -211.000000 61.246498 116 114 104
149.000000 -211.000000 61.046997 113 111 101
150.000000 -211.000000 60.847500 115 113 103
153.000000 -211.000000 -3.192000 116 114 104
155.000000 -211.000000 -3.192000 116 114 105
156.000000 -211.000000 -3.192000 116 115 104
157.000000 -211.000000 -3.192000 116 114 104
158.000000 -211.000000 -3.192000 116 115 105
159.000000 -211.000000 -3.192000 117 115 105
160.000000 -211.000000 -3.192000 117 115 105
161.000000 -211.000000 -3.192000 115 113 103
162.000000 -211.000000 -3.192000 109 106 96
163.000000 -211.000000 -3.192000 97 93 86
164.000000 -211.000000 -3.192000 89 81 77
165.000000 -211.000000 -3.192000 94 84 80
166.000000 -211.000000 -3.192000 101 94 87
167.000000 -211.000000 60.049500 106 102 92
168.000000 -211.000000 60.448498 112 108 97
169.000000 -211.000000 60.647999 114 107 99
170.000000 -211.000000 60.647999 107 96 91
171.000000 -211.000000 60.647999 107 95 89
172.000000 -211.000000 60.647999 107 95 89
175.000000 -211.000000 -3.192000 102 90 85
176.000000 -211.000000 -3.192000 100 88 82
177.000000 -211.000000 -3.192000 98 87 81
178.000000 -211.000000 -3.192000 103 91 85
179.000000 -211.000000 -3.192000 104 93 86
180.000000 -211.000000 -3.192000 101 90 83
181.000000 -211.000000 -3.192000 103 92 85
182.000000 -211.000000 -3.192000 111 98 91
183.000000 -211.000000 -3.192000 112 99 92
184.000000 -211.000000 -3.192000 112 100 93
185.000000 -211.000000 -3.192000 112 101 94
186.000000 -211.000000 -3.192000 110 103 95
187.000000 -211.000000 -3.192000 105 101 91
188.000000 -211.000000 61.046997 103 100 90
189.000000 -211.000000 61.445999 105 102 91
190.000000 -211.000000 61.645500 109 105 94
191.000000 -211.000000 61.445999 111 107 96
192.000000 -211.000000 61.445999 115 110 99
193.000000 -211.000000 61.445999 121 116 105
194.000000 -211.000000 61.445999 118 109 102
195.000000 -211.000000 61.246498 110 98 92
205.000000 -211.000000 -3.192000 88 85 80
206.000000 -211.000000 -3.192000 88 85 80
207.000000 -211.000000 -3.192000 88 86 80
208.000000 -211.000000 -3.192000 89 87 81
209.000000 -211.000000 -3.192000 91 89 82
210.000000 -211.000000 -3.192000 94 91 83
211.000000 -211.000000 60.049500 86 83 76
212.000000 -211.000000 60.448498 90 87 80
213.000000 -211.000000 60.647999 102 99 90
214.000000 -211.000000 60.647999 95 93 87
215.000000 -211.000000 60.647999 94 92 86
216.000000 -211.000000 60.647999 96 93 86
217.000000 -211.000000 60.647999 96 94 87
218.000000 -211.000000 60.248997 97 94 88
219.000000 -211.000000 59.650497 98 94 88
220.000000 -211.000000 59.451000 98 93 86
221.000000 -211.000000 58.253998 98 94 87
222.000000 -211.000000 58.054497 98 94 88
223.000000 -211.000000 58.054497 99 95 88
224.000000 -211.000000 58.253998 99 96 88
230.000000 -211.000000 57.455997 99 96 88
231.000000 -211.000000 57.455997 99 96 87
232.000000 -211.000000 57.455997 100 97 89
233.000000 -211.000000 57.455997 104 100 92
234.000000 -211.000000 57.455997 107 102 93
235.000000 -211.000000 57.455997 102 98 89
236.000000 -211.000000 57.455997 99 96 85
237.000000 -211.000000 57.655499 99 97 85
238.000000 -211.000000 58.054497 101 99 88
239.000000 -211.000000 58.054497 102 99 89
240.000000 -211.000000 57.455997 104 100 90
241.000000 -211.000000 57.455997 106 102 92
242.000000 -211.000000 57.056999 106 103 95
243.000000 -211.000000 56.857498 100 97 90
244.000000 -211.000000 56.458500 99 95 88
245.000000 -211.000000 56.258999 100 95 88
246.000000 -211.000000 56.258999 99 95 88
247.000000 -211.000000 56.258999 99 94 88
248.000000 -211.000000 56.657997 99 94 88
249.000000 -211.000000 56.657997 99 95 88
250.000000 -211.000000 57.256500 99 96 88
251.000000 -211.000000 57.256500 98 95 89
252.000000 -211.000000 57.256500 98 95 88
253.000000 -211.000000 57.455997 98 95 88
254.000000 -211.000000 57.455997 98 95 88
255.000000 -211.000000 57.455997 98 95 88
256.000000 -211.000000 57.056999 98 94 88
257.000000 -211.000000 55.660500 97 94 88
258.000000 -211.000000 55.261497 99 96 89
259.000000 -211.000000 55.062000 101 97 88
260.000000 -211.000000 54.662998 100 97 88
261.000000 -211.000000 54.463497 102 98 90
262.000000 -211.000000 54.264000 99 95 88
263.000000 -211.000000 54.064499 96 93 86
264.000000 -211.000000 53.864998 96 92 85
265.000000 -211.000000 53.864998 95 91 85
266.000000 -211.000000 53.066998 94 91 85
267.000000 -211.000000 52.468498 94 90 84
268.000000 -211.000000 52.468498 93 90 84
269.000000 -211.000000 53.066998 93 89 83
270.000000 -211.000000 53.665497 93 88 82
271.000000 -211.000000 53.665497 93 88 81
272.000000 -211.000000 53.665497 93 89 82
273.000000 -211.000000 53.665497 93 90 83
274.000000 -211.000000 53.864998 93 90 84
275.000000 -211.000000 53.864998 93 89 84
276.000000 -211.000000 52.867500 93 90 84
277.000000 -211.000000 51.869999 92 89 84
278.000000 -211.000000 51.470997 91 89 84
279.000000 -211.000000 51.071999 91 89 83
280.000000 -211.000000 51.071999 94 91 85
281.000000 -211.000000 50.872498 100 96 89
282.000000 -211.000000 50.673000 96 93 86
283.000000 -211.000000 50.473499 94 91 84
284.000000 -211.000000 50.273998 95 92 84
285.000000 -211.000000 50.074497 95 93 84
286.000000 -211.000000 48.877499 96 93 85
287.000000 -211.000000 48.278999 95 91 85
288.000000 -211.000000 48.079498 94 90 84
289.000000 -211.000000 47.879997 89 86 80
290.000000 -211.000000 47.879997 87 83 78
291.000000 -211.000000 47.879997 87 84 79
292.000000 -211.000000 47.879997 87 83 78
293.000000 -211.000000 47.879997 86 83 78
294.000000 -211.000000 48.079498 86 83 78
295.000000 -211.000000 48.079498 86 83 77
296.000000 -211.000000 48.278999 86 83 78
297.000000 -211.000000 48.478500 86 83 78
298.000000 -211.000000 48.478500 87 83 78
299.000000 -211.000000 48.478500 86 82 77
300.000000 -211.000000 48.278999 83 78 74
301.000000 -211.000000 48.079498 76 72 68
302.000000 -211.000000 47.879997 68 64 64
303.000000 -211.000000 47.680500 64 61 59
304.000000 -211.000000 47.281498 80 77 71
305.000000 -211.000000 47.081997 88 85 79
306.000000 -211.000000 -3.192000 83 80 76
307.000000 -211.000000 -3.192000 61 58 59
308.000000 -211.000000 -3.192000 44 42 44
309.000000 -211.000000 -3.192000 47 44 45
310.000000 -211.000000 -3.192000 67 66 61
311.000000 -211.000000 -3.192000 104 104 94
312.000000 -211.000000 -3.192000 121 120 111
313.000000 -211.000000 -3.192000 114 112 106
314.000000 -211.000000 -3.192000 99 98 94
315.000000 -211.000000 -3.192000 92 91 86
316.000000 -211.000000 -0.798000 89 88 83
317.000000 -211.000000 -0.798000 81 80 76
318.000000 -211.000000 -0.598500 76 76 72
319.000000 -211.000000 -0.399000 73 73 70
320.000000 -211.000000 -0.199500 70 70 66
321.000000 -211.000000 0.000000 31 31 28
322.000000 -211.000000 0.000000 1 1 1
63.000000 -212.000000 -3.192000 104 102 93
64.000000 -212.000000 0.399000 104 101 93
65.000000 -212.000000 0.399000 104 101 92
66.000000 -212.000000 0.598500 105 102 92
67.000000 -212.000000 0.798000 105 102 92
68.000000 -212.000000 1.197000 104 101 92
69.000000 -212.000000 2.194500 105 101 93
75.000000 -212.000000 54.662998 104 101 90
76.000000 -212.000000 55.062000 111 107 98
77.000000 -212.000000 55.460999 118 115 105
78.000000 -212.000000 55.859997 112 109 100
79.000000 -212.000000 56.059498 110 108 99
80.000000 -212.000000 56.059498 110 108 99
86.000000 -212.000000 55.859997 109 107 98
87.000000 -212.000000 56.258999 110 108 98
88.000000 -212.000000 56.657997 110 108 98
89.000000 -212.000000 57.256500 110 109 99
90.000000 -212.000000 57.455997 111 109 100
91.000000 -212.000000 57.455997 111 109 100
92.000000 -212.000000 57.455997 110 107 98
93.000000 -212.000000 57.455997 105 102 92
94.000000 -212.000000 57.455997 104 101 90
95.000000 -212.000000 57.455997 106 103 93
96.000000 -212.000000 57.455997 109 105 95
97.000000 -212.000000 57.455997 111 108 97
98.000000 -212.000000 57.455997 115 112 101
99.000000 -212.000000 57.455997 123 120 110
100.000000 -212.000000 57.455997 130 127 117
101.000000 -212.000000 57.455997 119 117 107
102.000000 -212.000000 57.455997 112 111 101
103.000000 -212.000000 57.855000 112 111 100
104.000000 -212.000000 58.054497 111 111 101
105.000000 -212.000000 58.253998 112 111 100
106.000000 -212.000000 58.253998 113 111 101
107.000000 -212.000000 58.253998 113 111 101
108.000000 -212.000000 58.453499 112 110 100
109.000000 -212.000000 58.653000 112 110 100
110.000000 -212.000000 58.852497 113 110 100
111.000000 -212.000000 60.049500 114 111 100
112.000000 -212.000000 60.647999 114 112 101
113.000000 -212.000000 60.647999 115 111 102
114.000000 -212.000000 60.049500 115 112 102
115.000000 -212.000000 59.849998 114 111 102
116.000000 -212.000000 59.849998 112 110 101
117.000000 -212.000000 59.849998 112 110 101
118.000000 -212.000000 60.049500 112 109 99
119.000000 -212.000000 60.049500 108 105 96
120.000000 -212.000000 60.248997 112 109 99
121.000000 -212.000000 60.248997 122 119 108
122.000000 -212.000000 60.248997 117 115 105
123.000000 -212.000000 60.248997 112 109 100
124.000000 -212.000000 60.248997 111 108 99
125.000000 -212.000000 60.248997 111 109 99
126.000000 -212.000000 60.448498 111 109 99
127.000000 -212.000000 60.847500 111 110 100
128.000000 -212.000000 61.246498 113 111 101
129.000000 -212.000000 61.445999 115 112 102
130.000000 -212.000000 61.645500 116 114 103
131.000000 -212.000000 61.246498 116 114 104
132.000000 -212.000000 60.847500 116 115 105
133.000000 -212.000000 60.647999 117 115 105
134.000000 -212.000000 60.647999 117 115 104
135.000000 -212.000000 60.647999 117 114 104
136.000000 -212.000000 61.246498 116 114 104
137.000000 -212.000000 61.246498 116 115 105
138.000000 -212.000000 61.246498 117 114 104
139.000000 -212.000000 61.445999 114 111 100
140.000000 -212.000000 61.246498 106 103 93
141.000000 -212.000000 61.445999 103 100 90
142.000000 -212.000000 61.445999 104 102 91
143.000000 -212.000000 61.844997 107 105 93
144.000000 -212.000000 61.844997 110 107 94
145.000000 -212.000000 61.246498 112 109 97
146.000000 -212.000000 61.246498 119 116 105
147.000000 -212.000000 61.246498 126 123 112
148.000000 -212.000000 61.246498 118 115 105
149.000000 -212.000000 61.046997 115 112 102
150.000000 -212.000000 60.847500 116 113 104
151.000000 -212.000000 60.647999 116 114 105
156.000000 -212.000000 -3.192000 117 115 105
157.000000 -212.000000 -3.192000 117 115 106
158.000000 -212.000000 -3.192000 118 115 106
159.000000 -212.000000 -3.192000 118 116 106
160.000000 -212.000000 -3.192000 118 116 106
161.000000 -212.000000 -3.192000 117 115 105
162.000000 -212.000000 -3.192000 112 109 100
163.000000 -212.000000 -3.192000 99 94 88
164.000000 -212.000000 -3.192000 85 79 75
165.000000 -212.000000 -3.192000 91 82 77
166.000000 -212.000000 -3.192000 100 93 85
167.000000 -212.000000 -3.192000 105 102 91
168.000000 -212.000000 60.448498 111 108 96
169.000000 -212.000000 60.448498 113 107 98
170.000000 -212.000000 60.647999 104 94 90
171.000000 -212.000000 60.647999 106 94 88
172.000000 -212.000000 60.647999 105 93 88
175.000000 -212.000000 -3.192000 107 94 90
176.000000 -212.000000 -3.192000 107 94 89
177.000000 -212.000000 -3.192000 108 94 89
178.000000 -212.000000 -3.192000 108 95 90
179.000000 -212.000000 -3.192000 109 96 90
180.000000 -212.000000 -3.192000 108 95 90
181.000000 -212.000000 -3.192000 109 97 90
182.000000 -212.000000 -3.192000 111 99 92
183.000000 -212.000000 -3.192000 111 99 92
184.000000 -212.000000 -3.192000 112 99 93
185.000000 -212.000000 -3.192000 112 100 93
186.000000 -212.000000 -3.192000 110 103 94
187.000000 -212.000000 60.847500 104 101 91
188.000000 -212.000000 61.046997 102 100 89
189.000000 -212.000000 61.445999 106 102 91
190.000000 -212.000000 61.445999 109 104 94
191.000000 -212.000000 61.246498 111 107 97
192.000000 -212.000000 61.246498 114 110 99
193.000000 -212.000000 61.246498 121 115 105
194.000000 -212.000000 61.246498 118 109 101
195.000000 -212.000000 61.046997 110 98 92
199.000000 -212.000000 -3.192000 94 84 80
201.000000 -212.000000 -3.192000 73 66 64
205.000000 -212.000000 -3.192000 88 84 79
206.000000 -212.000000 -3.192000 88 85 79
207.000000 -212.000000 -3.192000 88 85 80
208.000000 -212.000000 -3.192000 89 87 81
209.000000 -212.000000 -3.192000 92 89 82
210.000000 -212.000000 -3.192000 97 94 84
211.000000 -212.000000 1.396500 95 93 83
212.000000 -212.000000 60.248997 97 95 85
213.000000 -212.000000 60.448498 103 100 91
214.000000 -212.000000 60.647999 96 93 86
215.000000 -212.000000 60.647999 94 92 85
216.000000 -212.000000 60.647999 96 93 86
217.000000 -212.000000 60.647999 97 93 86
218.000000 -212.000000 59.451000 97 94 87
220.000000 -212.000000 58.253998 98 93 86
221.000000 -212.000000 57.655499 98 93 87
222.000000 -212.000000 57.855000 98 94 88
223.000000 -212.000000 58.054497 98 95 88
224.000000 -212.000000 58.054497 99 95 88
231.000000 -212.000000 57.455997 99 95 88
232.000000 -212.000000 57.455997 100 96 88
233.000000 -212.000000 57.455997 103 99 91
234.000000 -212.000000 57.455997 107 102 92
235.000000 -212.000000 57.455997 102 98 89
236.000000 -212.000000 57.455997 99 96 86
237.000000 -212.000000 57.655499 100 96 86
238.000000 -212.000000 57.855000 102 98 88
239.000000 -212.000000 57.855000 102 99 90
240.000000 -212.000000 57.455997 103 100 91
241.000000 -212.000000 57.256500 106 102 93
242.000000 -212.000000 56.857498 106 103 94
243.000000 -212.000000 56.857498 100 96 89
244.000000 -212.000000 56.657997 99 95 88
245.000000 -212.000000 56.458500 99 94 88
246.000000 -212.000000 56.458500 99 94 87
247.000000 -212.000000 56.657997 98 93 87
248.000000 -212.000000 56.657997 98 93 86
249.000000 -212.000000 56.657997 98 94 86
250.000000 -212.000000 56.857498 97 94 87
251.000000 -212.000000 57.056999 97 94 88
252.000000 -212.000000 57.056999 97 94 88
253.000000 -212.000000 57.056999 97 94 88
254.000000 -212.000000 57.056999 97 94 88
255.000000 -212.000000 57.056999 97 94 88
256.000000 -212.000000 56.657997 98 94 87
257.000000 -212.000000 55.460999 98 94 87
258.000000 -212.000000 55.261497 99 96 89
259.000000 -212.000000 54.862499 100 96 88
260.000000 -212.000000 54.463497 100 96 87
261.000000 -212.000000 54.264000 102 98 90
262.000000 -212.000000 54.264000 98 94 88
263.000000 -212.000000 54.064499 95 92 86
264.000000 -212.000000 54.064499 95 91 84
265.000000 -212.000000 53.864998 95 90 84
266.000000 -212.000000 53.266499 94 90 83
267.000000 -212.000000 52.667999 93 89 83
268.000000 -212.000000 52.667999 93 88 82
269.000000 -212.000000 53.066998 93 87 81
270.000000 -212.000000 53.466000 92 87 81
271.000000 -212.000000 53.665497 92 87 81
272.000000 -212.000000 53.466000 92 88 81
273.000000 -212.000000 53.466000 92 89 82
274.000000 -212.000000 53.665497 93 90 84
275.000000 -212.000000 53.466000 92 89 83
276.000000 -212.000000 52.667999 91 88 83
277.000000 -212.000000 51.670498 91 88 82
278.000000 -212.000000 51.271500 91 88 82
279.000000 -212.000000 51.071999 91 88 82
280.000000 -212.000000 50.872498 95 90 84
281.000000 -212.000000 50.673000 99 95 88
282.000000 -212.000000 50.473499 96 93 85
283.000000 -212.000000 50.273998 94 91 83
284.000000 -212.000000 50.074497 94 91 82
285.000000 -212.000000 50.074497 95 92 83
286.000000 -212.000000 48.677998 96 92 85
287.000000 -212.000000 48.278999 95 91 84
288.000000 -212.000000 48.079498 94 90 83
289.000000 -212.000000 48.079498 89 85 79
290.000000 -212.000000 47.879997 86 83 77
291.000000 -212.000000 47.879997 86 83 78
292.000000 -212.000000 48.079498 86 83 77
293.000000 -212.000000 47.879997 86 82 78
294.000000 -212.000000 48.079498 86 82 78
295.000000 -212.000000 48.079498 86 83 77
296.000000 -212.000000 48.079498 85 82 77
297.000000 -212.000000 48.278999 85 82 77
298.000000 -212.000000 48.278999 85 81 76
299.000000 -212.000000 48.478500 82 77 72
300.000000 -212.000000 48.278999 75 71 68
301.000000 -212.000000 48.079498 67 63 62
302.000000 -212.000000 47.879997 56 53 54
303.000000 -212.000000 47.879997 55 52 51
304.000000 -212.000000 47.480999 78 75 69
305.000000 -212.000000 47.281498 87 85 78
306.000000 -212.000000 -3.192000 80 78 74
307.000000 -212.000000 -3.192000 58 57 57
308.000000 -212.000000 -3.192000 43 41 42
309.000000 -212.000000 -3.192000 46 44 44
310.000000 -212.000000 -3.192000 66 66 62
311.000000 -212.000000 -3.192000 99 99 92
312.000000 -212.000000 -3.192000 114 112 106
313.000000 -212.000000 -3.192000 105 103 98
314.000000 -212.000000 -3.192000 98 96 91
315.000000 -212.000000 -3.192000 93 92 88
316.000000 -212.000000 -0.997500 86 85 81
317.000000 -212.000000 -0.798000 78 78 74
318.000000 -212.000000 -0.798000 75 75 71
319.000000 -212.000000 -0.598500 74 74 71
320.000000 -212.000000 -0.399000 72 72 68
321.000000 -212.000000 -0.199500 34 34 32
322.000000 -212.000000 -0.199500 2 2 2
63.000000 -213.000000 -3.192000 104 100 92
64.000000 -213.000000 -3.192000 102 100 91
65.000000 -213.000000 -3.192000 100 97 89
66.000000 -213.000000 -3.192000 101 98 89
67.000000 -213.000000 -3.192000 103 98 90
68.000000 -213.000000 -3.192000 98 94 86
69.000000 -213.000000 -3.192000 98 94 87
75.000000 -213.000000 54.662998 102 99 89
76.000000 -213.000000 54.862499 110 107 97
77.000000 -213.000000 55.261497 116 114 104
78.000000 -213.000000 55.460999 108 106 98
79.000000 -213.000000 55.660500 107 104 96
80.000000 -213.000000 55.660500 107 105 97
81.000000 -213.000000 55.261497 108 105 98
87.000000 -213.000000 56.258999 111 108 99
88.000000 -213.000000 56.657997 111 109 99
89.000000 -213.000000 56.857498 112 110 100
90.000000 -213.000000 57.256500 113 110 101
91.000000 -213.000000 57.455997 114 110 100
92.000000 -213.000000 57.455997 112 109 98
93.000000 -213.000000 57.455997 105 102 92
94.000000 -213.000000 57.455997 103 100 90
95.000000 -213.000000 57.455997 105 101 92
96.000000 -213.000000 57.455997 108 104 95
97.000000 -213.000000 57.455997 111 107 97
98.000000 -213.000000 57.455997 115 112 101
99.000000 -213.000000 57.455997 124 120 109
100.000000 -213.000000 57.455997 130 127 117
101.000000 -213.000000 57.455997 118 117 107
102.000000 -213.000000 57.455997 111 110 99
103.000000 -213.000000 57.855000 110 110 99
104.000000 -213.000000 58.253998 110 109 99
105.000000 -213.000000 58.453499 110 109 99
106.000000 -213.000000 58.453499 110 109 99
107.000000 -213.000000 58.653000 109 108 99
108.000000 -213.000000 58.653000 109 108 98
109.000000 -213.000000 58.852497 109 107 97
110.000000 -213.000000 58.852497 109 107 98
111.000000 -213.000000 60.049500 110 108 98
112.000000 -213.000000 60.647999 111 109 99
113.000000 -213.000000 60.448498 112 110 100
114.000000 -213.000000 60.448498 113 110 101
115.000000 -213.000000 60.049500 112 110 101
116.000000 -213.000000 60.049500 111 109 100
117.000000 -213.000000 60.049500 110 109 101
118.000000 -213.000000 60.248997 110 108 99
119.000000 -213.000000 60.248997 108 105 94
120.000000 -213.000000 60.448498 112 109 97
121.000000 -213.000000 60.448498 121 119 107
122.000000 -213.000000 60.448498 116 115 105
123.000000 -213.000000 60.448498 112 110 100
124.000000 -213.000000 60.448498 111 109 99
125.000000 -213.000000 60.248997 111 109 99
126.000000 -213.000000 60.647999 111 109 99
127.000000 -213.000000 60.847500 111 109 100
128.000000 -213.000000 61.246498 112 110 100
129.000000 -213.000000 61.246498 113 111 101
130.000000 -213.000000 61.246498 114 112 103
131.000000 -213.000000 60.847500 115 113 103
132.000000 -213.000000 60.847500 116 114 103
133.000000 -213.000000 60.647999 115 114 104
134.000000 -213.000000 60.647999 116 114 104
135.000000 -213.000000 60.647999 116 113 104
136.000000 -213.000000 61.046997 116 114 104
137.000000 -213.000000 61.246498 115 115 104
138.000000 -213.000000 61.246498 116 114 104
139.000000 -213.000000 61.445999 113 110 100
140.000000 -213.000000 61.246498 107 103 93
141.000000 -213.000000 61.445999 103 100 90
142.000000 -213.000000 61.445999 104 102 91
143.000000 -213.000000 61.844997 106 104 93
144.000000 -213.000000 61.844997 110 107 95
145.000000 -213.000000 61.246498 113 109 97
146.000000 -213.000000 61.246498 120 116 105
147.000000 -213.000000 61.246498 127 124 113
148.000000 -213.000000 60.847500 119 116 106
149.000000 -213.000000 60.847500 115 113 103
150.000000 -213.000000 60.647999 116 114 104
151.000000 -213.000000 60.647999 116 114 104
155.000000 -213.000000 -3.192000 117 115 105
156.000000 -213.000000 -3.192000 116 115 105
157.000000 -213.000000 -3.192000 117 115 106
158.000000 -213.000000 -3.192000 117 115 106
159.000000 -213.000000 -3.192000 117 116 106
160.000000 -213.000000 -3.192000 117 116 106
161.000000 -213.000000 -3.192000 116 115 105
162.000000 -213.000000 -3.192000 112 109 100
163.000000 -213.000000 -3.192000 98 93 88
164.000000 -213.000000 -3.192000 83 76 74
165.000000 -213.000000 -3.192000 86 79 75
166.000000 -213.000000 -3.192000 97 92 84
167.000000 -213.000000 -3.192000 105 102 92
169.000000 -213.000000 60.049500 113 106 98
171.000000 -213.000000 60.647999 104 92 88
172.000000 -213.000000 76.807495 102 90 86
173.000000 -213.000000 76.807495 102 90 86
175.000000 -213.000000 -3.192000 103 91 87
176.000000 -213.000000 -3.192000 103 92 86
177.000000 -213.000000 -3.192000 104 93 87
178.000000 -213.000000 -3.192000 104 92 88
179.000000 -213.000000 -3.192000 105 93 88
180.000000 -213.000000 -3.192000 106 94 89
181.000000 -213.000000 -3.192000 107 95 90
182.000000 -213.000000 -3.192000 107 95 90
183.000000 -213.000000 -3.192000 108 96 90
184.000000 -213.000000 -3.192000 109 96 90
185.000000 -213.000000 -3.192000 109 98 91
186.000000 -213.000000 -3.192000 109 102 93
187.000000 -213.000000 60.647999 105 100 90
188.000000 -213.000000 60.847500 103 100 89
189.000000 -213.000000 61.046997 106 101 91
190.000000 -213.000000 61.246498 108 104 94
191.000000 -213.000000 61.246498 110 106 96
192.000000 -213.000000 61.046997 113 110 99
193.000000 -213.000000 61.046997 120 115 105
194.000000 -213.000000 61.046997 115 107 100
195.000000 -213.000000 61.046997 106 96 90
198.000000 -213.000000 -3.192000 105 93 88
199.000000 -213.000000 -3.192000 95 85 81
200.000000 -213.000000 -3.192000 72 66 64
201.000000 -213.000000 -3.192000 71 67 64
202.000000 -213.000000 -3.192000 86 81 77
203.000000 -213.000000 -3.192000 88 84 79
204.000000 -213.000000 -3.192000 86 84 79
205.000000 -213.000000 -3.192000 87 85 79
206.000000 -213.000000 -3.192000 88 85 78
207.000000 -213.000000 -3.192000 88 85 79
208.000000 -213.000000 -3.192000 89 86 80
209.000000 -213.000000 -3.192000 91 89 82
210.000000 -213.000000 -3.192000 97 94 85
211.000000 -213.000000 -0.399000 100 97 86
212.000000 -213.000000 60.049500 103 100 89
213.000000 -213.000000 60.248997 105 102 92
214.000000 -213.000000 60.448498 97 93 86
215.000000 -213.000000 60.647999 94 91 85
216.000000 -213.000000 60.647999 95 92 85
217.000000 -213.000000 60.647999 96 92 85
222.000000 -213.000000 57.256500 98 94 87
223.000000 -213.000000 57.455997 98 94 88
231.000000 -213.000000 57.455997 98 94 87
232.000000 -213.000000 57.455997 98 95 86
233.000000 -213.000000 57.455997 102 98 89
234.000000 -213.000000 57.455997 106 101 91
235.000000 -213.000000 57.455997 101 98 88
236.000000 -213.000000 57.455997 99 96 86
237.000000 -213.000000 57.655499 100 96 86
238.000000 -213.000000 57.855000 102 98 88
239.000000 -213.000000 57.855000 103 99 90
240.000000 -213.000000 57.256500 104 100 90
241.000000 -213.000000 57.056999 106 102 92
242.000000 -213.000000 56.857498 106 102 93
243.000000 -213.000000 56.857498 99 96 88
244.000000 -213.000000 56.857498 99 95 87
245.000000 -213.000000 56.657997 99 94 88
246.000000 -213.000000 56.657997 98 93 87
247.000000 -213.000000 56.657997 97 93 86
248.000000 -213.000000 56.657997 97 93 86
249.000000 -213.000000 56.657997 97 93 86
250.000000 -213.000000 56.657997 97 93 86
251.000000 -213.000000 56.857498 96 93 87
252.000000 -213.000000 56.857498 96 93 87
253.000000 -213.000000 56.857498 96 94 88
254.000000 -213.000000 56.857498 96 93 88
255.000000 -213.000000 56.657997 97 93 87
256.000000 -213.000000 56.258999 98 93 86
257.000000 -213.000000 55.261497 98 93 86
258.000000 -213.000000 54.862499 99 95 89
259.000000 -213.000000 54.662998 100 95 88
260.000000 -213.000000 54.264000 100 95 87
261.000000 -213.000000 54.264000 102 97 90
262.000000 -213.000000 54.064499 97 94 87
263.000000 -213.000000 54.064499 95 92 86
264.000000 -213.000000 54.064499 94 90 84
265.000000 -213.000000 53.864998 94 89 82
266.000000 -213.000000 53.266499 93 89 82
267.000000 -213.000000 52.667999 93 89 83
268.000000 -213.000000 52.667999 92 88 82
269.000000 -213.000000 53.066998 92 87 81
270.000000 -213.000000 53.266499 91 87 81
271.000000 -213.000000 53.466000 91 87 81
272.000000 -213.000000 53.266499 92 87 81
273.000000 -213.000000 53.266499 92 88 81
274.000000 -213.000000 53.466000 92 89 83
275.000000 -213.000000 53.466000 91 89 82
276.000000 -213.000000 52.468498 91 87 81
277.000000 -213.000000 51.470997 91 86 81
278.000000 -213.000000 51.071999 91 86 81
279.000000 -213.000000 50.872498 91 87 81
280.000000 -213.000000 50.673000 94 90 83
281.000000 -213.000000 50.473499 99 95 87
282.000000 -213.000000 50.273998 96 93 85
283.000000 -213.000000 50.074497 94 91 83
284.000000 -213.000000 50.074497 94 91 82
285.000000 -213.000000 50.074497 95 91 83
286.000000 -213.000000 48.677998 96 92 85
287.000000 -213.000000 48.278999 95 91 84
288.000000 -213.000000 48.079498 93 90 83
289.000000 -213.000000 48.079498 88 84 78
290.000000 -213.000000 48.079498 86 82 76
291.000000 -213.000000 48.079498 85 82 76
292.000000 -213.000000 48.079498 85 81 76
293.000000 -213.000000 47.879997 85 81 77
294.000000 -213.000000 47.879997 85 81 77
295.000000 -213.000000 47.879997 85 82 76
296.000000 -213.000000 47.879997 84 81 75
297.000000 -213.000000 48.079498 83 79 74
298.000000 -213.000000 48.079498 80 75 71
299.000000 -213.000000 48.278999 74 69 67
300.000000 -213.000000 48.079498 65 62 61
301.000000 -213.000000 47.879997 55 52 52
302.000000 -213.000000 47.879997 48 46 47
303.000000 -213.000000 47.680500 53 51 49
304.000000 -213.000000 47.480999 78 75 68
305.000000 -213.000000 47.480999 87 84 77
306.000000 -213.000000 47.281498 82 79 74
307.000000 -213.000000 -3.192000 58 57 57
308.000000 -213.000000 -3.192000 42 41 42
309.000000 -213.000000 -3.192000 46 45 44
310.000000 -213.000000 -3.192000 65 65 62
311.000000 -213.000000 -3.192000 94 93 87
312.000000 -213.000000 -3.192000 105 104 98
313.000000 -213.000000 -3.192000 96 95 90
314.000000 -213.000000 -3.192000 96 94 88
315.000000 -213.000000 -3.192000 94 92 87
316.000000 -213.000000 -0.997500 85 84 81
317.000000 -213.000000 -0.997500 77 77 73
318.000000 -213.000000 -0.997500 79 78 73
319.000000 -213.000000 -0.798000 80 79 75
320.000000 -213.000000 -0.598500 75 74 71
321.000000 -213.000000 -0.399000 36 36 35
322.000000 -213.000000 -0.399000 3 3 3
63.000000 -214.000000 -3.192000 102 99 91
64.000000 -214.000000 -3.192000 100 98 90
65.000000 -214.000000 -3.192000 98 96 87
66.000000 -214.000000 -3.192000 103 99 90
67.000000 -214.000000 -3.192000 104 100 90
68.000000 -214.000000 -3.192000 95 91 83
69.000000 -214.000000 -3.192000 100 96 88
76.000000 -214.000000 54.862499 109 106 97
77.000000 -214.000000 55.261497 114 111 101
78.000000 -214.000000 55.261497 103 101 92
79.000000 -214.000000 55.261497 100 97 90
80.000000 -214.000000 55.261497 101 98 91
81.000000 -214.000000 55.261497 101 99 92
82.000000 -214.000000 55.062000 102 99 92
88.000000 -214.000000 56.657997 107 104 96
89.000000 -214.000000 56.857498 109 105 97
90.000000 -214.000000 56.857498 110 107 98
91.000000 -214.000000 57.256500 111 107 99
92.000000 -214.000000 57.455997 110 106 97
93.000000 -214.000000 57.455997 104 102 92
94.000000 -214.000000 57.455997 103 100 90
95.000000 -214.000000 57.455997 105 101 91
96.000000 -214.000000 57.455997 108 104 94
97.000000 -214.000000 57.455997 110 107 97
98.000000 -214.000000 57.455997 115 111 101
99.000000 -214.000000 57.455997 123 119 109
100.000000 -214.000000 57.455997 131 128 117
101.000000 -214.000000 57.455997 123 121 110
102.000000 -214.000000 57.655499 117 114 104
103.000000 -214.000000 58.054497 116 114 103
104.000000 -214.000000 58.453499 115 113 102
105.000000 -214.000000 58.852497 113 111 101
106.000000 -214.000000 58.852497 112 110 101
107.000000 -214.000000 58.852497 111 110 100
108.000000 -214.000000 58.852497 111 110 100
109.000000 -214.000000 58.852497 111 109 99
110.000000 -214.000000 59.051998 110 109 99
111.000000 -214.000000 59.451000 110 109 99
112.000000 -214.000000 60.049500 110 109 99
113.000000 -214.000000 60.049500 111 110 100
114.000000 -214.000000 60.448498 112 110 100
115.000000 -214.000000 60.248997 111 110 101
116.000000 -214.000000 60.248997 111 109 101
117.000000 -214.000000 60.248997 110 109 100
118.000000 -214.000000 60.448498 109 108 98
119.000000 -214.000000 60.448498 108 105 94
120.000000 -214.000000 60.448498 111 108 97
121.000000 -214.000000 60.448498 120 117 107
122.000000 -214.000000 60.448498 114 113 104
123.000000 -214.000000 60.448498 110 109 99
124.000000 -214.000000 60.647999 110 108 99
125.000000 -214.000000 60.647999 110 108 98
126.000000 -214.000000 60.647999 110 108 98
127.000000 -214.000000 60.847500 110 109 99
128.000000 -214.000000 61.046997 110 109 100
129.000000 -214.000000 61.246498 111 110 100
130.000000 -214.000000 60.847500 112 111 101
131.000000 -214.000000 60.847500 113 112 102
132.000000 -214.000000 60.647999 113 112 102
133.000000 -214.000000 60.647999 113 112 103
134.000000 -214.000000 60.647999 114 112 103
135.000000 -214.000000 60.647999 114 112 103
136.000000 -214.000000 60.847500 114 112 103
137.000000 -214.000000 61.046997 114 113 102
138.000000 -214.000000 61.046997 114 113 103
139.000000 -214.000000 61.246498 112 110 100
140.000000 -214.000000 61.246498 107 104 93
141.000000 -214.000000 61.246498 103 101 91
142.000000 -214.000000 61.445999 104 102 91
143.000000 -214.000000 61.645500 107 105 93
144.000000 -214.000000 61.645500 110 107 96
145.000000 -214.000000 61.246498 113 109 98
146.000000 -214.000000 61.246498 120 116 105
147.000000 -214.000000 60.847500 127 124 113
148.000000 -214.000000 60.847500 118 116 106
149.000000 -214.000000 60.647999 114 113 103
150.000000 -214.000000 60.448498 115 114 104
151.000000 -214.000000 60.647999 116 114 104
152.000000 -214.000000 60.448498 116 114 104
153.000000 -214.000000 -3.192000 116 114 105
154.000000 -214.000000 -3.192000 116 115 104
155.000000 -214.000000 -3.192000 116 115 104
156.000000 -214.000000 -3.192000 116 115 104
157.000000 -214.000000 -3.192000 116 115 105
158.000000 -214.000000 -3.192000 117 115 106
159.000000 -214.000000 -3.192000 117 116 106
160.000000 -214.000000 -3.192000 117 116 106
161.000000 -214.000000 -3.192000 116 115 105
162.000000 -214.000000 -3.192000 112 109 100
163.000000 -214.000000 -3.192000 98 93 87
164.000000 -214.000000 -3.192000 83 76 74
165.000000 -214.000000 -3.192000 87 79 76
166.000000 -214.000000 -3.192000 98 92 85
172.000000 -214.000000 77.006996 101 90 84
173.000000 -214.000000 77.206497 103 91 86
174.000000 -214.000000 76.807495 105 93 88
175.000000 -214.000000 -3.192000 106 94 88
176.000000 -214.000000 -3.192000 106 94 88
177.000000 -214.000000 -3.192000 106 95 89
178.000000 -214.000000 -3.192000 106 95 89
179.000000 -214.000000 -3.192000 107 95 89
180.000000 -214.000000 -3.192000 108 95 89
181.000000 -214.000000 -3.192000 109 96 90
182.000000 -214.000000 -3.192000 108 95 90
183.000000 -214.000000 -3.192000 107 95 90
184.000000 -214.000000 -3.192000 108 96 90
185.000000 -214.000000 -3.192000 109 98 90
186.000000 -214.000000 -3.192000 108 102 92
187.000000 -214.000000 60.647999 104 100 90
188.000000 -214.000000 60.647999 103 100 89
189.000000 -214.000000 60.847500 105 101 91
190.000000 -214.000000 61.246498 108 104 93
191.000000 -214.000000 61.246498 110 106 96
192.000000 -214.000000 61.046997 113 109 99
193.000000 -214.000000 61.046997 119 115 104
194.000000 -214.000000 61.046997 115 106 100
195.000000 -214.000000 60.847500 106 95 90
198.000000 -214.000000 -3.192000 105 93 89
199.000000 -214.000000 -3.192000 97 87 84
200.000000 -214.000000 -3.192000 75 69 66
201.000000 -214.000000 -3.192000 73 68 65
202.000000 -214.000000 -3.192000 82 79 75
203.000000 -214.000000 -3.192000 85 82 78
204.000000 -214.000000 -3.192000 86 84 78
205.000000 -214.000000 -3.192000 87 85 79
206.000000 -214.000000 -3.192000 88 85 78
207.000000 -214.000000 -3.192000 89 86 79
208.000000 -214.000000 -3.192000 89 87 81
209.000000 -214.000000 -3.192000 91 89 83
210.000000 -214.000000 -3.192000 98 94 86
211.000000 -214.000000 -3.192000 101 98 88
212.000000 -214.000000 59.650497 105 101 90
213.000000 -214.000000 60.049500 106 102 92
214.000000 -214.000000 60.248997 96 93 86
215.000000 -214.000000 60.448498 94 91 85
216.000000 -214.000000 60.647999 94 90 85
217.000000 -214.000000 60.647999 93 90 84
231.000000 -214.000000 57.455997 96 93 85
232.000000 -214.000000 57.455997 97 93 84
233.000000 -214.000000 57.455997 101 96 88
234.000000 -214.000000 57.455997 104 100 91
235.000000 -214.000000 57.455997 100 97 87
236.000000 -214.000000 57.455997 99 96 86
237.000000 -214.000000 57.455997 100 97 86
238.000000 -214.000000 57.655499 101 98 88
239.000000 -214.000000 57.655499 103 99 89
240.000000 -214.000000 57.256500 104 100 90
241.000000 -214.000000 57.056999 107 102 93
242.000000 -214.000000 57.056999 105 101 93
243.000000 -214.000000 56.857498 98 95 88
244.000000 -214.000000 56.857498 98 94 87
245.000000 -214.000000 56.857498 98 94 87
246.000000 -214.000000 56.857498 97 93 87
247.000000 -214.000000 56.657997 96 92 85
248.000000 -214.000000 56.458500 96 92 85
249.000000 -214.000000 56.458500 96 92 85
250.000000 -214.000000 56.458500 96 92 86
251.000000 -214.000000 56.657997 95 92 85
252.000000 -214.000000 56.657997 95 92 86
253.000000 -214.000000 56.458500 95 92 86
254.000000 -214.000000 56.458500 96 92 86
255.000000 -214.000000 56.258999 96 91 85
256.000000 -214.000000 56.258999 96 91 85
257.000000 -214.000000 55.062000 96 92 86
258.000000 -214.000000 54.662998 99 94 88
259.000000 -214.000000 54.264000 100 95 88
260.000000 -214.000000 54.264000 99 95 87
261.000000 -214.000000 54.064499 101 97 89
262.000000 -214.000000 54.064499 97 93 86
263.000000 -214.000000 53.864998 94 91 84
264.000000 -214.000000 54.064499 93 89 84
265.000000 -214.000000 53.864998 93 89 83
266.000000 -214.000000 53.266499 93 88 82
267.000000 -214.000000 52.667999 92 89 83
268.000000 -214.000000 52.667999 92 88 82
269.000000 -214.000000 52.867500 92 87 81
270.000000 -214.000000 53.066998 91 86 80
271.000000 -214.000000 53.066998 91 86 81
272.000000 -214.000000 53.066998 91 87 81
273.000000 -214.000000 53.066998 90 87 81
274.000000 -214.000000 53.266499 91 88 82
275.000000 -214.000000 53.266499 91 87 82
276.000000 -214.000000 52.069500 91 87 81
277.000000 -214.000000 51.071999 91 86 81
278.000000 -214.000000 50.872498 91 86 80
279.000000 -214.000000 50.673000 90 86 80
280.000000 -214.000000 50.273998 94 90 83
281.000000 -214.000000 50.273998 99 95 87
282.000000 -214.000000 50.074497 96 91 84
283.000000 -214.000000 50.074497 93 90 82
284.000000 -214.000000 50.074497 93 90 83
285.000000 -214.000000 49.875000 94 91 84
286.000000 -214.000000 48.677998 95 91 85
287.000000 -214.000000 48.278999 95 91 84
288.000000 -214.000000 48.079498 93 89 83
289.000000 -214.000000 48.079498 88 85 79
290.000000 -214.000000 48.079498 86 84 78
291.000000 -214.000000 48.079498 85 82 77
292.000000 -214.000000 48.079498 84 81 76
293.000000 -214.000000 47.879997 85 81 77
294.000000 -214.000000 47.879997 85 81 77
295.000000 -214.000000 47.879997 85 81 76
296.000000 -214.000000 47.879997 82 78 73
297.000000 -214.000000 47.879997 78 73 70
298.000000 -214.000000 47.879997 72 67 65
299.000000 -214.000000 47.879997 63 60 59
300.000000 -214.000000 47.879997 52 50 50
301.000000 -214.000000 47.680500 47 45 45
302.000000 -214.000000 47.680500 46 44 45
303.000000 -214.000000 47.480999 55 52 50
304.000000 -214.000000 47.480999 80 76 70
305.000000 -214.000000 47.480999 86 82 76
306.000000 -214.000000 47.281498 81 78 73
307.000000 -214.000000 -3.192000 59 57 57
308.000000 -214.000000 -3.192000 44 42 43
309.000000 -214.000000 -3.192000 47 45 45
310.000000 -214.000000 -3.192000 65 64 60
311.000000 -214.000000 -3.192000 88 86 81
312.000000 -214.000000 -3.192000 96 94 90
313.000000 -214.000000 -3.192000 91 89 85
314.000000 -214.000000 -3.192000 93 91 85
315.000000 -214.000000 -3.192000 92 90 85
316.000000 -214.000000 -1.197000 86 84 80
317.000000 -214.000000 -0.997500 79 78 74
318.000000 -214.000000 -1.197000 78 77 73
319.000000 -214.000000 -1.197000 75 75 71
320.000000 -214.000000 -0.798000 65 64 63
321.000000 -214.000000 -0.598500 33 33 33
322.000000 -214.000000 -0.598500 3 3 3
64.000000 -215.000000 -3.192000 99 98 89
65.000000 -215.000000 -3.192000 97 95 87
66.000000 -215.000000 -3.192000 104 101 92
67.000000 -215.000000 -3.192000 106 101 92
68.000000 -215.000000 -3.192000 97 94 86
69.000000 -215.000000 -3.192000 107 104 96
70.000000 -215.000000 -3.192000 114 110 100
76.000000 -215.000000 54.862499 109 106 96
77.000000 -215.000000 55.261497 117 113 103
78.000000 -215.000000 55.261497 111 107 97
79.000000 -215.000000 55.261497 107 103 94
80.000000 -215.000000 55.261497 107 102 94
81.000000 -215.000000 55.062000 106 102 94
82.000000 -215.000000 55.062000 105 101 93
89.000000 -215.000000 56.657997 103 99 91
90.000000 -215.000000 56.857498 103 99 92
91.000000 -215.000000 56.857498 104 100 93
92.000000 -215.000000 57.256500 103 100 92
93.000000 -215.000000 57.455997 102 99 90
94.000000 -215.000000 57.455997 102 100 90
95.000000 -215.000000 57.455997 104 101 91
96.000000 -215.000000 57.455997 107 104 94
97.000000 -215.000000 57.455997 110 107 98
98.000000 -215.000000 57.455997 115 111 101
99.000000 -215.000000 57.455997 122 119 109
100.000000 -215.000000 57.455997 130 128 117
101.000000 -215.000000 57.655499 121 118 108
102.000000 -215.000000 57.855000 114 110 102
103.000000 -215.000000 58.253998 114 110 102
104.000000 -215.000000 58.852497 113 111 101
105.000000 -215.000000 58.852497 113 111 101
106.000000 -215.000000 59.650497 113 110 101
107.000000 -215.000000 59.451000 113 111 102
108.000000 -215.000000 59.251499 114 111 103
109.000000 -215.000000 59.051998 115 112 104
110.000000 -215.000000 59.051998 115 113 104
111.000000 -215.000000 59.251499 115 114 103
112.000000 -215.000000 59.451000 116 114 104
113.000000 -215.000000 60.049500 117 115 105
114.000000 -215.000000 60.248997 119 117 106
115.000000 -215.000000 60.248997 120 117 108
116.000000 -215.000000 60.248997 120 117 108
117.000000 -215.000000 60.248997 120 117 107
118.000000 -215.000000 60.647999 117 115 104
119.000000 -215.000000 60.647999 109 107 96
120.000000 -215.000000 60.647999 111 107 98
121.000000 -215.000000 60.647999 120 118 108
122.000000 -215.000000 60.647999 120 119 108
123.000000 -215.000000 60.647999 117 116 105
124.000000 -215.000000 60.647999 116 115 104
125.000000 -215.000000 60.647999 115 115 103
126.000000 -215.000000 60.847500 114 114 102
