ply
        format ascii 1.0
        element vertex 147
        property float x
        property float y
        property float z
        property uchar red
        property uchar green
        property uchar blue
        end_header
        0.064843 0.997835 0.010970 0 255 0
0.064927 0.997830 0.010971 0 255 0
0.065107 0.997818 0.010970 0 255 0
0.026215 0.999596 0.010994 0 255 0
0.065036 0.997823 0.010970 0 255 0
0.026226 0.999596 0.010994 0 255 0
0.053240 0.998520 0.011143 0 255 0
0.053946 0.998482 0.011139 0 255 0
0.056608 0.998336 0.010975 0 255 0
0.065182 0.997813 0.011001 0 255 0
0.053981 0.998480 0.011139 0 255 0
0.056593 0.998337 0.010974 0 255 0
0.065198 0.997812 0.011000 0 255 0
0.074587 0.997154 0.010955 0 255 0
0.064878 0.997833 0.010970 0 255 0
0.065043 0.997822 0.010971 0 255 0
0.065062 0.997821 0.010971 0 255 0
0.026204 0.999596 0.010995 0 255 0
0.026485 0.999588 0.011017 0 255 0
0.060823 0.998088 0.010973 0 255 0
0.054425 0.998455 0.011167 0 255 0
0.042186 0.999045 0.011359 0 255 0
0.026234 0.999595 0.011019 0 255 0
0.065226 0.997810 0.011001 0 255 0
0.053250 0.998519 0.011150 0 255 0
0.056586 0.998337 0.010975 0 255 0
0.092335 0.995668 0.010949 0 255 0
0.026313 0.999593 0.011017 0 255 0
0.026187 0.999597 0.010995 0 255 0
0.056757 0.998326 0.011156 0 255 0
0.026281 0.999594 0.011018 0 255 0
0.053938 0.998482 0.011139 0 255 0
0.056720 0.998329 0.011006 0 255 0
0.092818 0.995623 0.010971 0 255 0
0.079458 0.996775 0.011228 0 255 0
0.039336 0.999166 0.010974 0 255 0
0.093447 0.995564 0.010970 0 255 0
0.053251 0.998519 0.011143 0 255 0
0.039331 0.999166 0.010974 0 255 0
0.058781 0.998207 0.011334 0 255 0
0.062927 0.997956 0.011160 0 255 0
0.053226 0.998520 0.011167 0 255 0
0.071556 0.997374 0.011210 0 255 0
0.030637 0.999466 0.011353 0 255 0
0.093401 0.995568 0.010971 0 255 0
0.054680 0.998441 0.011167 0 255 0
0.056802 0.998325 0.011007 0 255 0
0.053173 0.998525 0.010976 0 255 0
0.039299 0.999167 0.010975 0 255 0
0.062795 0.997963 0.011219 0 255 0
0.075663 0.997070 0.011208 0 255 0
0.039348 0.999165 0.010975 0 255 0
0.030621 0.999467 0.011353 0 255 0
0.068995 0.997553 0.011324 0 255 0
0.056879 0.998320 0.011007 0 255 0
0.042354 0.999038 0.011355 0 255 0
0.093429 0.995566 0.010971 0 255 0
0.039289 0.999167 0.010995 0 255 0
0.062934 0.997955 0.011160 0 255 0
0.053245 0.998519 0.011168 0 255 0
0.053287 0.998517 0.011166 0 255 0
0.092370 0.995665 0.010948 0 255 0
0.067378 0.997664 0.011248 0 255 0
0.062897 0.997958 0.011159 0 255 0
0.056882 0.998317 0.011335 0 255 0
0.056819 0.998324 0.011006 0 255 0
0.067776 0.997638 0.011209 0 255 0
0.039988 0.999139 0.011015 0 255 0
0.056885 0.998316 0.011335 0 255 0
0.053359 0.998512 0.011234 0 255 0
0.072300 0.997319 0.011245 0 255 0
0.082719 0.996511 0.011121 0 255 0
0.092781 0.995626 0.010971 0 255 0
0.053256 0.998519 0.011142 0 255 0
0.063968 0.997890 0.011143 0 255 0
0.053318 0.998515 0.011142 0 255 0
0.066938 0.997694 0.011210 0 255 0
0.055791 0.998379 0.011282 0 255 0
0.065345 0.997799 0.011253 0 255 0
0.053246 0.998519 0.011151 0 255 0
0.092808 0.995624 0.010971 0 255 0
0.056720 0.998328 0.011155 0 255 0
0.062839 0.997961 0.011159 0 255 0
0.072089 0.997336 0.011124 0 255 0
0.069165 0.997542 0.011231 0 255 0
0.078360 0.996862 0.011198 0 255 0
0.037525 0.999235 0.010994 0 255 0
0.027715 0.999552 0.011338 0 255 0
0.056349 0.998348 0.011236 0 255 0
0.058592 0.998219 0.011260 0 255 0
0.069606 0.997512 0.011161 0 255 0
0.064617 0.997847 0.011237 0 255 0
0.027701 0.999552 0.011339 0 255 0
0.046794 0.998840 0.011348 0 255 0
0.061094 0.998070 0.011156 0 255 0
0.027732 0.999551 0.011339 0 255 0
0.040242 0.999126 0.011262 0 255 0
0.043464 0.998991 0.011342 0 255 0
0.035868 0.999294 0.011170 0 255 0
0.056757 0.998326 0.011155 0 255 0
0.057423 0.998285 0.011350 0 255 0
0.078387 0.996860 0.011198 0 255 0
0.088121 0.996049 0.010980 0 255 0
0.025196 0.999618 0.011350 0 255 0
0.056749 0.998326 0.011155 0 255 0
0.025515 0.999610 0.011347 0 255 0
0.053252 0.998519 0.011151 0 255 0
0.045597 0.998896 0.011321 0 255 0
0.065989 0.997758 0.011124 0 255 0
0.034801 0.999332 0.011167 0 255 0
0.050294 0.998672 0.011150 0 255 0
0.054850 0.998432 0.011148 0 255 0
0.088099 0.996051 0.010980 0 255 0
0.020588 0.999727 0.011015 0 255 0
0.075114 0.997113 0.011137 0 255 0
0.021435 0.999708 0.011180 0 255 0
0.064044 0.997884 0.011237 0 255 0
0.059016 0.998192 0.011338 0 255 0
0.064067 0.997882 0.011236 0 255 0
0.063995 0.997888 0.011143 0 255 0
0.045675 0.998894 0.011148 0 255 0
0.041449 0.999076 0.011354 0 255 0
0.044960 0.998924 0.011356 0 255 0
0.072651 0.997298 0.010907 0 255 0
0.035200 0.999319 0.011073 0 255 0
0.053342 0.998514 0.011152 0 255 0
0.049903 0.998689 0.011356 0 255 0
0.034405 0.999347 0.010995 0 255 0
0.067389 0.997663 0.011246 0 255 0
0.058560 0.998222 0.011140 0 255 0
0.065360 0.997799 0.011151 0 255 0
0.067414 0.997662 0.011247 0 255 0
0.068661 0.997577 0.011229 0 255 0
0.042332 0.999039 0.011335 0 255 0
0.049758 0.998700 0.011082 0 255 0
0.033543 0.999373 0.011355 0 255 0
0.060946 0.998078 0.011210 0 255 0
0.057351 0.998290 0.011334 0 255 0
0.062246 0.997999 0.011131 0 255 0
0.068779 0.997569 0.011222 0 255 0
0.069224 0.997538 0.011230 0 255 0
0.065712 0.997774 0.011338 0 255 0
0.064194 0.997873 0.011323 0 255 0
0.065631 0.997781 0.011210 0 255 0
0.045707 0.998891 0.011334 0 255 0
0.051024 0.998634 0.011228 0 255 0
0.042087 0.999050 0.011329 0 255 0
